3853.45 3854.44 3856.01 3856.9 3856.45 3855.71 3854.81 3853.62 3852.96 3853.33 3852.28 3850.5 3852.43 3854.09 3855.27 3856.06 3856.66 3854.46 3853.49 3854.9 3855.19 3854.9 3856.22 3857.31 3858.08 3858.51 3858.78 3859.85 3860.97 3862.21 3863.46 3864.72 3862.88 3861.2 3859.73 3859.7 3860.38 3860.53 3861.33 3863.44 3863.56 3862.69 3862.66 3863.97 3868.01 3868.3 3866.72 3866.32 3865.78 3864.93 3864.4 3864.04 3861.79 3859.37 3856.55 3854.99 3854.06 3852.89 3851.92 3851.33 3849.83 3847.87 3842.73 3838.58 3836.28 3834.43 3832.8 3831.75 3830.27 3827.86 3823.96 3819.26 3819.18 3819.44 3820.4 3822.35 3824.81 3827.95 3830.78 3832.94 3833.68 3833.7 3834.93 3835.81 3835.98 3837.02 3838.47 3840.92 3841.96 3840.24 3838.1 3835.74 3835.43 3835.77 3837.43 3838.68 3839.72 3840.06 3842.43 3848.93 3852.67 3855.07 3858.87 3863.02 3867.89 3873.86 3880.45 3883.67 3887.61 3893.05 3900.12 3908.09 3925.68 3937.6 3938.23 3939.21 3940.44 3938.16 3936.17 3934.73 3933.34 3932 3929.38 3928.54 3931.11 3932.99 3934.49 3935.83 3937.29 3939.05 3941.73 3944.95 3953.01 3954.45 3942.61 3932.92 3924.19 3922.31 3919.46 3914.58 3911.83 3910.08 3914.05 3919.35 3927.43 3926.29 3920.53 3923.1 3928.34 3939.06 3957.2 3979.42 4007.25 4031.39 4048.02 4058.82 4066.77 4070.15 4073.57 4077.16 4080.63 4084.1 4083.83 4085.11 4089.58 4092.24 4094.04 4098.74 4102.5 4104.44 4104.77 4104.31 4101.24 4100.09 4102.76 4103.22 4102.58 4102.62 4102.95 4103.88 4103.75 4103.09 4103.76 4105.11 4107.86 4109.01 4109.38 4110.09 4110.61 4110.76 4111.18 4111.75 4109.44 4108.45 4110.08 4109.06 4106.71 4105.86 4105.59 4106.51 4108.57 4111.23 4111.98 4112.63 4113.07 4113.33 4113.5 4112.63 4111.55 4110.01 4109.65 4109.88 4107.27 4105.02 4103.42 4101.03 4098.2 4096.71 4095.6 4095.24 4094.92 4094.63 4090.62 4086.92 4083.73 4081.07 4078.64 4076.98 4075.12 4072.81 4071.55 4070.79 4069.49 4068.78 4069.23 4069.84 4070.53 4071.25 4071.26 4069.84 4067.7 4065.19 4063.18 4061.8 4061.67 4062.59 4064.06 4064.7 4064.76 4063.66 4062.95 4062.43 4062.19 4061.8 4061.17 4058.82 4055.64 4055.08 4052.96 4047.72 4045.05 4043.65 4042.42 4039.84 4034.52 4032.81 4032.93 4024.01 4018.63 4020.29 4022.51 4025.16 4010.91 3994.11 3971.93 3950.5 3929.34 3904.95 3881.14 3857.73 3829.32 3798.45 3773.23 3748.72 3724.81 3694.34 3660.66 3629.77 3592.66 3542.41 3492.14 3442.13 3380.86 3335.11 3316.08 3265.04 3199.69 3154.5 3109.34 3062.13 3012.59 -999 -999 -999 -999 -999 -999 -999 -999 -999 -999 -999 -999 -999 -999 2324.8 2298.06 2274.91 2244.92 2201.17 2177.37 2162.96 2150.97 2136.74 2117.86 2106.34 2098.33 2075.34 2057.21 2047.55 2041.17 2036.32 2028.8 2020.85 2011.94 2005.43 2000.16 1993.76 1988.39 1984.93 1982.06 1979.47 1970.13 1962.95 1959.7 1957.19 1955.06 1948.11 1942.58 1939.83 1936.46 1932.76 1923.19 1915.21 1910.03 1904.78 1899.45 1896.65 1895.04 1895.68 1895.78 1895.55 1890.01 1885.26 1882.02 1876.53 1869.95 1862.26 1855.86 1851.9 1850.24 1849.72 1845.52 1841.97 1839.62 1835.88 1831.41 1825.65 1819.65 1813.01 1807.89 1803.5 1800.53 1797.07 1792.55 1788.81 1785.43
3854.69 3855.44 3856.86 3857.69 3857.33 3856.69 3855.9 3854.18 3853.26 3853.94 3852.7 3850.5 3852.1 3853.58 3854.84 3855.32 3855.43 3852 3850.32 3852.09 3852.27 3851.66 3854.91 3857.05 3857 3857 3857.01 3858.17 3859.41 3860.82 3862.09 3863.31 3860.18 3858.33 3859.03 3859.7 3860.38 3860.53 3861.06 3862.33 3862.2 3861.38 3861.19 3862.43 3866.57 3866.95 3865.46 3864.96 3864.36 3863.58 3863.6 3864.04 3861.79 3859.08 3855.37 3853.58 3852.72 3852.36 3851.92 3851.33 3849.83 3847.87 3842.73 3838.58 3836.28 3834.43 3832.8 3831.03 3829.31 3827.63 3823.31 3817.65 3817.26 3817.43 3818.73 3820.22 3821.82 3822.96 3825.08 3829.21 3830.43 3830.2 3830.81 3831.27 3831.42 3831.28 3831.01 3835 3837.06 3835.27 3833.51 3831.73 3831.23 3831.4 3832.94 3833.44 3833.42 3833.82 3836.5 3843.82 3847.88 3850.36 3853.47 3857.48 3863.4 3869.74 3876.36 3879.17 3883.03 3889.06 3896.28 3904.17 3922.88 3934.79 3933.06 3935.1 3939.06 3935.65 3932.54 3929.96 3929.24 3929.45 3923.21 3920.35 3924.17 3925.15 3924.73 3927.45 3929.77 3931.34 3935.93 3942.08 3949.59 3951.1 3940.61 3931.06 3921.9 3920.21 3918.06 3914.93 3912.38 3910.08 3914.05 3919.35 3927.43 3926.29 3920.53 3923.1 3928.34 3939.06 3957.12 3979.2 4006.4 4029.92 4045.99 4056.18 4063.52 4067.16 4070.69 4074.09 4078.06 4082.36 4082.44 4083.69 4087.32 4089.74 4091.58 4096.99 4101.26 4103.33 4103.72 4103.29 4100.41 4099.33 4101.8 4102.33 4101.89 4101.92 4102.2 4103.02 4102.86 4102.2 4102.97 4104.4 4107.17 4108.31 4108.64 4109.39 4109.93 4110.06 4110.48 4111.04 4108.67 4107.66 4109.34 4108.3 4105.89 4105.02 4104.74 4105.66 4107.77 4110.51 4111.16 4111.65 4111.8 4111.96 4112.13 4111.26 4110.17 4108.62 4108.31 4108.61 4105.97 4103.98 4103.21 4100.45 4096.68 4096.14 4095.68 4095.33 4095 4094.69 4090.7 4087 4083.82 4081.15 4078.69 4077.03 4075.17 4072.88 4071.57 4070.74 4069.45 4068.73 4069.16 4069.72 4070.35 4071.06 4071.1 4069.85 4067.66 4064.99 4062.9 4061.47 4061.32 4062.19 4063.57 4064.2 4064.28 4063.28 4062.74 4062.43 4061.8 4060.45 4057.65 4055.22 4052.95 4052.38 4049.63 4042.47 4039.1 4037.57 4036.3 4033.66 4028.23 4028.69 4032.08 4022.91 4015.77 4012.48 4016.48 4024.2 4009.81 3992.84 3970.36 3948.68 3927.28 3902.32 3877.95 3854 3825.17 3793.95 3768.55 3743.9 3719.92 3686.63 3648.9 3618.83 3583.16 3535.62 3487.72 3439.86 3379.62 3334.54 3315.6 3265.06 3200.36 3153.79 3108.3 3062.74 3015.05 -999 -999 -999 -999 -999 -999 -999 -999 -999 -999 -999 -999 -999 -999 -999 2292.83 2269.62 2238.33 2190.89 2165.85 2151.27 2142.45 2130.52 2112.22 2101.05 2093.28 2068.47 2050.06 2043.11 2037.64 2032.85 2025.57 2017.02 2005.78 2001.32 2000.16 1993.76 1987.82 1982.6 1979.15 1976.55 1963.45 1953.69 1950.14 1948.26 1947.19 1943.39 1939.93 1937.09 1933.68 1929.95 1917.61 1907.9 1903.01 1897.89 1892.6 1887.45 1884.61 1886.3 1884.75 1881.56 1876.5 1871.71 1867.31 1863.51 1859.97 1855.31 1851.45 1849.06 1848.14 1847.94 1843.86 1840.7 1839.31 1835.88 1831.41 1825 1818.46 1811.46 1806.82 1803.3 1800.53 1797.16 1792.51 1788.75 1785.41
3852.33 3853.21 3854.55 3855.79 3856.87 3856.69 3855.9 3854.18 3853.17 3853.58 3852.53 3850.75 3851.97 3853.14 3854.26 3854.45 3854.2 3850.22 3847.86 3848.66 3849.54 3850.42 3852.15 3853.47 3854.08 3854.68 3855.28 3856.56 3857.86 3859.23 3860.43 3861.57 3859.48 3858.33 3859.03 3859.7 3860.38 3860.53 3861.06 3862.33 3862.2 3861.38 3861.19 3862.13 3865.32 3865.61 3864.44 3864.43 3864.15 3863.28 3862.85 3862.64 3860.25 3857.76 3855.05 3853.58 3852.72 3852.36 3851.92 3851.33 3849.47 3846.98 3842.38 3838.26 3835.01 3832.92 3831.38 3829.76 3827.97 3825.79 3821.82 3816.91 3816.96 3817.18 3817.74 3819.48 3821.82 3822.64 3824.25 3827.45 3828.42 3828.27 3828.89 3829.46 3829.9 3829.25 3828.07 3831.01 3833.28 3834.35 3832.84 3830.09 3830.56 3831.4 3832.94 3832.46 3831 3831.71 3834.79 3842.71 3846.86 3849.19 3851.91 3855.54 3861.07 3868.26 3876.34 3879.15 3882.58 3887.26 3893.67 3901.02 3914.93 3923.88 3923.06 3925.32 3929.15 3931.46 3931.84 3928.14 3925.37 3923.04 3918.9 3917.03 3919.52 3920.06 3919.61 3922.44 3924.61 3925.45 3930.5 3937.69 3942.69 3942.58 3932.33 3924.94 3918.86 3918.13 3916.61 3913.43 3911.81 3910.93 3914.87 3919.05 3923.69 3923.84 3921.64 3923.99 3929.25 3940.48 3956.36 3974.89 4002.4 4026.5 4043.74 4054.3 4061.6 4066.39 4070.48 4073.2 4076.93 4081.21 4080.85 4081.99 4086.19 4088.83 4090.71 4096.09 4100.35 4102.44 4102.61 4101.85 4099.35 4098.37 4100.37 4100.99 4100.91 4100.96 4101.26 4102.05 4101.97 4101.45 4102.27 4103.71 4106.43 4107.66 4108.14 4108.88 4109.42 4109.56 4109.94 4110.43 4107.92 4106.86 4108.71 4107.74 4105.37 4104.5 4104.24 4105.16 4107.33 4110.15 4110.74 4111.07 4110.89 4110.94 4111.09 4110.19 4109.1 4107.63 4107.34 4107.66 4105.1 4103.22 4102.66 4100.46 4097.41 4096.81 4096.29 4095.97 4095.64 4095.32 4091.29 4087.57 4084.37 4081.66 4079.16 4077.5 4075.64 4073.39 4071.09 4068.79 4067.7 4066.97 4066.92 4067.48 4068.35 4069.33 4069.68 4068.79 4066.73 4064.07 4062.53 4061.44 4061.21 4062.1 4063.57 4064.2 4064.32 4063.45 4062.76 4062.15 4060.53 4058.06 4053.82 4050.91 4048.62 4050.66 4048.74 4038.77 4032.9 4029.02 4027.68 4026.57 4026.01 4025.74 4025.71 4013.72 4006.71 4009.64 4011.36 4012.68 4004.76 3991.88 3968.74 3946.58 3924.79 3899.03 3873.91 3849.23 3819.89 3788.25 3764.33 3740.72 3716.91 3684.48 3647.91 3617.49 3581.82 3534.96 3487.7 3440.46 3380.44 3335.23 3315.43 3265.21 3201.32 3154.6 3109.09 3063.74 3017.96 -999 -999 -999 -999 -999 -999 -999 -999 -999 -999 -999 -999 -999 -999 -999 2278.92 2255.36 2223.85 2176.42 2151.86 2137.96 2129.74 2118.81 2102.35 2090.37 2080.55 2061.13 2046.26 2039.5 2034.2 2029.59 2019.83 2010.55 2002.09 1997.63 1995.15 1989.1 1983 1976.62 1971.81 1967.75 1958.67 1951.56 1948 1945.37 1943.2 1936.67 1931.39 1928.51 1925.04 1921.26 1910.12 1901.19 1896.25 1891.23 1886.12 1881.2 1878.43 1879.83 1877.55 1873.44 1868.6 1863.91 1859.39 1855.75 1852.51 1849.06 1845.89 1843.17 1841.67 1840.77 1838.78 1837.08 1835.86 1832.98 1829.25 1823.44 1817.43 1810.85 1806.39 1802.93 1800.26 1796.96 1792.31 1788.37 1784.75
3849.94 3850.97 3852.22 3853.88 3856.38 3856.69 3855.9 3854.18 3853.08 3853.21 3852.36 3851 3851.83 3852.71 3853.67 3853.58 3852.96 3848.43 3845.37 3845.22 3846.77 3849.18 3849.36 3849.88 3851.12 3852.34 3853.55 3854.94 3856.3 3857.62 3858.76 3859.81 3858.78 3858.33 3859.03 3859.7 3860.38 3860.53 3861.06 3862.33 3862.2 3861.38 3861.19 3861.81 3864.07 3864.26 3863.41 3863.91 3863.93 3862.98 3862.1 3861.24 3858.69 3856.43 3854.71 3853.58 3852.72 3852.36 3851.92 3851.33 3849.12 3846.09 3842.02 3837.94 3833.73 3831.38 3829.94 3828.47 3826.61 3823.94 3820.31 3816.17 3816.66 3816.93 3816.75 3818.73 3821.82 3822.32 3823.39 3825.68 3826.38 3826.31 3826.96 3827.63 3828.36 3827.21 3825.12 3826.99 3829.51 3833.38 3832.18 3828.43 3829.9 3831.4 3832.94 3831.49 3828.55 3829.59 3833.08 3841.58 3845.84 3848.01 3850.34 3853.58 3858.72 3866.75 3876.33 3879.14 3882.1 3885.45 3891.04 3897.84 3906.91 3912.93 3913.01 3915.49 3919.2 3927.28 3931.11 3926.33 3921.48 3916.59 3914.58 3913.66 3914.86 3914.94 3914.45 3917.4 3919.4 3919.54 3925.02 3933.26 3935.73 3934.02 3924 3918.76 3915.81 3916.04 3915.14 3911.92 3911.23 3911.78 3915.7 3918.7 3919.97 3921.34 3922.76 3924.89 3930.17 3941.91 3955.62 3970.56 3998.37 4023.07 4041.46 4052.4 4059.67 4065.61 4070.25 4072.32 4075.8 4080.04 4079.24 4080.28 4085.04 4087.9 4089.83 4095.19 4099.44 4101.54 4101.5 4100.39 4098.28 4097.39 4098.93 4099.63 4099.92 4100 4100.3 4101.06 4101.07 4100.69 4101.56 4103.02 4105.69 4107 4107.64 4108.37 4108.9 4109.05 4109.39 4109.82 4107.15 4106.05 4108.06 4107.18 4104.84 4103.98 4103.73 4104.65 4106.88 4109.78 4110.31 4110.49 4109.97 4109.9 4110.05 4109.11 4108.03 4106.62 4106.37 4106.7 4104.22 4102.46 4102.1 4100.46 4098.16 4097.47 4096.92 4096.61 4096.29 4095.95 4091.9 4088.14 4084.92 4082.17 4079.64 4077.97 4076.13 4073.9 4070.62 4066.82 4065.95 4065.19 4064.66 4065.22 4066.32 4067.58 4068.25 4067.72 4065.8 4063.14 4062.15 4061.4 4061.09 4062.02 4063.57 4064.2 4064.37 4063.63 4062.77 4061.85 4059.25 4055.63 4049.98 4046.58 4044.26 4048.94 4047.81 4035.07 4026.69 4020.43 4019.02 4019.49 4023.72 4022.79 4019.28 4004.47 3997.69 4006.7 4006.25 4001.11 3999.71 3990.9 3967.11 3944.46 3922.27 3895.71 3869.82 3844.45 3814.57 3782.5 3760.1 3737.52 3713.88 3682.31 3646.92 3616.14 3580.47 3534.29 3487.68 3441.06 3381.28 3335.92 3315.28 3265.35 3202.29 3155.42 3109.88 3064.74 3020.88 -999 -999 -999 -999 -999 -999 -999 -999 -999 -999 -999 -999 -999 -999 -999 2265.05 2241.14 2209.41 2162.02 2137.91 2124.69 2117.05 2107.13 2092.46 2079.7 2067.85 2053.79 2042.44 2035.86 2030.74 2026.3 2014.05 2004.09 1998.34 1993.92 1990.13 1984.42 1978.15 1970.62 1964.45 1958.94 1953.89 1949.41 1945.85 1942.48 1939.18 1929.91 1922.83 1919.92 1916.41 1912.56 1902.63 1894.46 1889.47 1884.55 1879.62 1874.94 1872.22 1873.34 1870.35 1865.31 1860.69 1856.1 1851.45 1847.97 1845.03 1842.79 1840.31 1837.27 1835.19 1833.58 1833.68 1833.43 1832.39 1830.06 1827.07 1821.88 1816.41 1810.24 1805.95 1802.57 1799.99 1796.75 1792.11 1787.99 1784.09
3848.68 3849.66 3850.99 3852.78 3855.51 3855.99 3855.32 3853.48 3852.38 3852.71 3851.97 3850.68 3851.03 3851.54 3852.37 3852.17 3851.44 3847.22 3844.19 3843.52 3844.57 3846.46 3845.48 3845.39 3847.07 3848.79 3850.57 3852.33 3854.13 3856.09 3857.43 3858.5 3858.41 3858.51 3858.99 3859.64 3860.38 3860.53 3861.06 3862.33 3862.2 3861.38 3861.02 3861.38 3863.16 3863.39 3862.86 3863.7 3863.85 3862.61 3861.39 3860.17 3857.46 3855.24 3853.99 3852.98 3852.1 3851.83 3851.3 3850.24 3847.46 3843.79 3840.05 3836.36 3832.75 3830.62 3829.24 3827.84 3825.8 3822.44 3818.91 3815.26 3816.05 3816.47 3816.17 3817.98 3820.87 3821.17 3821.9 3823.53 3823.91 3823.66 3824.28 3824.82 3825.2 3823.78 3821.44 3822.4 3824.68 3829.64 3828.83 3825.15 3826.25 3827.5 3829.03 3827.61 3824.72 3826.08 3829.57 3837.39 3841.48 3843.73 3848.05 3852.59 3857.77 3865.14 3873.65 3876.34 3879.67 3884.41 3890.18 3896.56 3902.57 3906.77 3907.37 3910.24 3914.29 3924.21 3928.74 3922.45 3916.81 3911.44 3910.52 3910.11 3910.73 3910.9 3910.88 3913.98 3916.01 3915.97 3921.11 3928.9 3930.13 3927.96 3919.01 3915.17 3913.86 3914.56 3914.06 3911.13 3911.04 3912.37 3916.14 3918.36 3917.5 3919.67 3923.4 3925.08 3929.89 3941.05 3954.15 3968.41 3996.38 4021.37 4040.34 4051.22 4058.11 4064.05 4068.71 4070.87 4074.31 4078.44 4077.73 4079.01 4084.37 4087.28 4088.97 4094.14 4098.3 4100.52 4100.47 4099.29 4097.4 4096.57 4097.87 4098.62 4099.1 4099.04 4099.3 4100.2 4100.29 4099.99 4100.68 4102.04 4104.74 4106.14 4106.9 4107.64 4108.18 4108.33 4108.6 4108.93 4106.3 4105.24 4107.29 4106.46 4104.19 4103.36 4103.13 4104.08 4106.32 4109.23 4109.74 4109.82 4109 4108.82 4108.94 4107.99 4106.91 4105.54 4105.3 4105.63 4103.56 4102.02 4101.52 4100 4097.95 4097.12 4096.49 4096.23 4095.93 4095.61 4091.93 4088.41 4085.15 4082.38 4079.82 4078.15 4076.2 4073.65 4070.01 4065.79 4064.92 4064.18 4063.7 4064.25 4065.32 4066.72 4067.46 4066.86 4064.82 4062.02 4061.08 4060.39 4060.16 4061.35 4063.26 4063.98 4064.24 4063.57 4062.29 4060.69 4056.38 4051.41 4044.98 4041.29 4038.93 4045.46 4044.45 4028.36 4017.97 4010.28 4012.03 4014.5 4018.55 4015.53 4008.89 3996.54 3990.82 3998.26 3998.28 3994.65 3996.68 3989.88 3965.49 3942.49 3920.06 3883.71 3851.94 3827.35 3797.93 3766.18 3744.72 3723.34 3701.53 3673.85 3643.44 3613.24 3577.7 3530.82 3485.42 3440.92 3381.42 3335.94 3314.43 3264.64 3202.18 3155 3109.9 3066.64 3024 -999 -999 -999 -999 -999 -999 -999 -999 -999 -999 -999 -999 -999 -999 -999 -999 -999 -999 -999 2119.16 2106.85 2101.81 2093.85 2080.11 2066.84 2053.75 2042.42 2032.96 2026.9 2022.11 2017.94 2005.48 1995.94 1991.86 1988.1 1984.49 1978.41 1971.46 1962.57 1956 1950.55 1947.65 1944.52 1940.86 1937.08 1933.2 1924.04 1916.73 1912.88 1909.11 1905.35 1897.06 1889.93 1884.92 1880.05 1875.22 1870.03 1866.69 1866.87 1863.53 1858.44 1854.02 1849.47 1844.51 1841.41 1839.22 1837.93 1835.89 1832.34 1829.88 1827.94 1827.53 1827.15 1826.76 1825.08 1822.76 1818.08 1813.33 1808.37 1804.86 1802.08 1799.54 1796.33 1791.74 1787.59 1783.64
3848.5 3849.28 3850.84 3852.45 3854.24 3854.56 3854.15 3852.09 3851.06 3852.06 3851.35 3849.79 3849.55 3849.63 3850.34 3850.19 3849.61 3846.56 3844.28 3843.54 3842.88 3842.21 3840.47 3839.95 3841.83 3843.99 3846.3 3848.67 3851.32 3854.57 3856.43 3857.6 3858.35 3858.85 3858.92 3859.51 3860.38 3860.53 3861.06 3862.33 3862.2 3861.38 3860.69 3860.82 3862.58 3863.01 3862.77 3863.81 3863.91 3862.15 3860.71 3859.42 3856.53 3854.17 3852.84 3851.78 3850.84 3850.77 3850.06 3848.04 3844.46 3840.06 3836.42 3833.53 3832.02 3830.62 3829.24 3827.84 3825.5 3821.27 3817.59 3814.17 3815.09 3815.78 3815.99 3817.22 3818.96 3819.17 3819.72 3820.97 3820.94 3820.27 3820.81 3820.96 3820.38 3818.9 3816.98 3817.19 3818.74 3823.02 3822.74 3820.21 3819.56 3819.65 3821.16 3820.77 3819.46 3821.13 3824.17 3830.09 3833.73 3836.29 3844.96 3852.55 3858.22 3863.36 3868.25 3870.7 3875.27 3884.08 3891.06 3897.14 3901.86 3905.25 3905.99 3909.44 3914.31 3922.14 3924.64 3916.5 3911.26 3907.48 3906.63 3906.31 3907.04 3907.89 3908.82 3912.09 3914.36 3914.66 3918.66 3924.54 3925.78 3924.28 3917.2 3914.11 3912.96 3913.66 3913.36 3911.03 3911.24 3912.71 3916.21 3917.97 3916.28 3918.84 3923.58 3924.57 3928.37 3937.91 3951.91 3968.41 3996.38 4021.37 4040.34 4050.74 4056.9 4061.67 4065.84 4068.83 4072.44 4076.39 4076.28 4078.18 4084.16 4086.93 4088.11 4092.93 4096.93 4099.35 4099.51 4098.53 4096.68 4095.88 4097.18 4097.93 4098.42 4098.08 4098.24 4099.43 4099.63 4099.34 4099.63 4100.76 4103.57 4105.06 4105.91 4106.68 4107.24 4107.39 4107.56 4107.74 4105.35 4104.42 4106.37 4105.58 4103.41 4102.63 4102.44 4103.42 4105.63 4108.49 4109.03 4109.03 4107.96 4107.67 4107.77 4106.81 4105.72 4104.37 4104.12 4104.43 4103.11 4101.89 4100.9 4099.06 4096.77 4095.73 4094.99 4094.83 4094.58 4094.28 4091.39 4088.37 4085.08 4082.28 4079.7 4078.04 4075.87 4072.66 4069.22 4065.66 4064.6 4063.93 4064.02 4064.56 4065.32 4066.72 4067.28 4066.18 4063.77 4060.68 4059.3 4058.39 4058.4 4060.09 4062.65 4063.56 4063.93 4063.27 4061.3 4058.64 4051.91 4045.31 4038.75 4034.97 4032.53 4040.12 4038.49 4018.61 4006.59 3998.4 4006.52 4011.47 4010.43 4003.81 3994.39 3989.71 3985.92 3984.26 3987.35 3993.12 3995.52 3988.78 3963.87 3940.62 3918.1 3863.15 3820.31 3797.92 3769.95 3739.24 3718.16 3698.2 3679.75 3659.11 3637.42 3608.72 3573.43 3524.52 3480.93 3440.03 3380.84 3335.27 3312.9 3263.08 3200.99 3153.33 3109.18 3069.43 3027.39 -999 -999 -999 -999 -999 -999 -999 -999 -999 -999 -999 -999 -999 -999 -999 -999 -999 -999 -999 2095.51 2084.35 2083.79 2078.81 2065.15 2051.6 2038.06 2026.89 2017.81 2012.55 2008.28 2004.45 1994.03 1986.02 1982.54 1980.08 1978.14 1970.99 1962.8 1952.38 1946.33 1942.41 1939.82 1936.83 1932.98 1929.11 1925.19 1918.93 1912.88 1907.24 1902.99 1899.44 1893.26 1887.5 1882.48 1877.61 1872.79 1866.38 1861.69 1860.3 1856.96 1852.67 1848.45 1843.85 1838.4 1835.92 1834.93 1834.33 1832.52 1828.28 1825.61 1823.72 1820.22 1818.18 1818.88 1817.98 1816.26 1811.99 1808.19 1805.2 1803.11 1801.45 1798.88 1795.69 1791.18 1787.17 1783.38
3848.33 3848.9 3850.68 3852.14 3852.97 3853.15 3853 3850.72 3849.76 3851.41 3850.75 3848.91 3848.09 3847.74 3848.33 3848.24 3847.8 3845.9 3844.37 3843.56 3841.19 3838.02 3835.53 3834.58 3836.67 3839.24 3842.08 3845.05 3848.52 3853.09 3855.45 3856.71 3858.28 3859.2 3858.84 3859.38 3860.38 3860.53 3861.06 3862.33 3862.2 3861.38 3860.37 3860.27 3862.01 3862.62 3862.68 3863.91 3863.97 3861.69 3860.04 3858.68 3855.61 3853.12 3851.71 3850.58 3849.59 3849.72 3848.83 3845.86 3841.48 3836.37 3832.83 3830.7 3831.33 3830.62 3829.24 3827.84 3825.21 3820.1 3816.29 3813.1 3814.15 3815.09 3815.82 3816.47 3817.07 3817.2 3817.57 3818.44 3818 3816.91 3817.38 3817.17 3815.6 3814.08 3812.58 3812.05 3812.88 3816.49 3816.74 3815.32 3812.97 3811.91 3813.39 3814.04 3814.26 3816.24 3818.87 3822.86 3826.08 3828.95 3841.87 3852.5 3858.66 3861.59 3862.92 3865.14 3870.88 3883.8 3891.92 3897.71 3901.17 3903.75 3904.62 3908.66 3914.33 3920.11 3920.61 3910.59 3905.8 3903.56 3902.78 3902.54 3903.4 3904.91 3906.78 3910.21 3912.71 3913.37 3916.23 3920.23 3921.49 3920.61 3915.43 3913.06 3912.08 3912.77 3912.66 3910.94 3911.44 3913.05 3916.29 3917.6 3915.07 3918.03 3923.76 3924.08 3926.89 3934.79 3949.7 3968.41 3996.38 4021.37 4040.34 4050.26 4055.7 4059.32 4062.99 4066.82 4070.59 4074.36 4074.85 4077.36 4083.96 4086.59 4087.25 4091.73 4095.57 4098.2 4098.56 4097.78 4095.96 4095.19 4096.49 4097.26 4097.75 4097.12 4097.19 4098.67 4098.97 4098.69 4098.58 4099.48 4102.41 4103.99 4104.92 4105.73 4106.31 4106.46 4106.53 4106.57 4104.41 4103.6 4105.46 4104.71 4102.65 4101.91 4101.76 4102.76 4104.96 4107.77 4108.32 4108.25 4106.92 4106.53 4106.6 4105.64 4104.55 4103.21 4102.96 4103.25 4102.65 4101.77 4100.29 4098.13 4095.62 4094.37 4093.51 4093.44 4093.24 4092.97 4090.84 4088.33 4085.01 4082.19 4079.59 4077.93 4075.55 4071.67 4068.45 4065.54 4064.28 4063.67 4064.34 4064.87 4065.32 4066.72 4067.12 4065.5 4062.73 4059.36 4057.54 4056.41 4056.65 4058.84 4062.04 4063.13 4063.63 4062.97 4060.3 4056.62 4047.51 4039.29 4032.6 4028.73 4026.21 4034.84 4032.67 4008.95 3995.39 3986.7 4001.04 4008.54 4002.36 3992.25 3980.13 3982.93 3981.19 3970.38 3976.65 3991.61 3994.37 3987.7 3962.25 3938.77 3916.16 3843.11 3789.47 3769.24 3742.65 3712.94 3692.22 3673.59 3658.48 3644.7 3631.47 3604.26 3569.25 3518.27 3476.51 3439.15 3380.28 3334.61 3311.37 3261.54 3199.82 3151.69 3108.43 3072.23 3030.76 -999 -999 -999 -999 -999 -999 -999 -999 -999 -999 -999 -999 -999 -999 -999 -999 -999 -999 2094.18 2072.61 2062.54 2066.22 2064.12 2050.54 2036.72 2022.76 2011.74 2003.02 1998.56 1994.77 1991.28 1982.81 1976.28 1973.4 1972.22 1971.89 1963.7 1954.33 1942.38 1936.85 1934.42 1932.13 1929.28 1925.24 1921.28 1917.32 1913.87 1909.11 1901.66 1896.97 1893.62 1889.49 1885.09 1880.06 1875.2 1870.39 1862.77 1856.78 1853.83 1850.51 1846.99 1842.97 1838.33 1832.39 1830.53 1830.7 1830.78 1829.19 1824.26 1821.41 1819.56 1813.06 1809.37 1811.17 1811.01 1809.86 1805.99 1803.1 1802.1 1801.39 1800.83 1798.24 1795.06 1790.63 1786.76 1783.13
3843.33 3846.97 3848.65 3850.19 3851.52 3851.93 3851.89 3849.69 3848.37 3848.77 3847.91 3846.39 3845.59 3844.9 3844.38 3844.91 3845.95 3845.15 3843.85 3841.43 3837.7 3833.28 3832.28 3832 3833.06 3835.36 3838.3 3840.97 3842.94 3843.45 3845.21 3847.53 3849.05 3850.29 3851.04 3852.01 3853.11 3854.02 3854.74 3855.07 3854 3852.22 3851.46 3851.56 3853.38 3854.67 3855.7 3858.47 3859.74 3857.98 3856.7 3855.64 3853.28 3851.01 3848.88 3846.84 3844.83 3844.03 3842.96 3841.41 3838.29 3834.37 3826.02 3821.44 3824.48 3825.25 3824.9 3824.62 3822.88 3818.2 3813.91 3809.81 3810.9 3811.62 3811.61 3811.8 3812.08 3813.07 3813.98 3814.72 3814.04 3812.65 3812.7 3812.7 3812.68 3811.69 3810.21 3809.68 3810.15 3812.61 3812.95 3812.21 3810.63 3810.04 3811.36 3812.08 3812.5 3813.63 3815.25 3817.88 3820.52 3823.18 3834.91 3845.2 3852.75 3858.25 3862.75 3865.2 3869.76 3878.53 3884.68 3889.54 3893.08 3896.59 3900.18 3906.41 3914.04 3917.97 3917.73 3909.23 3904.48 3901.57 3900.88 3900.6 3901.13 3902.07 3903.22 3906.31 3908.38 3908.43 3911.59 3916.32 3917.06 3916.3 3912.56 3910.04 3908.15 3908.99 3909.07 3907.65 3908.13 3909.57 3912.66 3914.41 3913.58 3916.67 3921.8 3922.29 3925.16 3932.84 3947.41 3965.7 3995.28 4021.18 4039.56 4049.52 4055.32 4058.94 4062.32 4065.26 4068.72 4072.46 4073.31 4076.15 4083.06 4086.11 4087.25 4091.09 4094.6 4097.55 4097.77 4096.64 4094.85 4094.12 4095.53 4096.39 4096.99 4096.54 4096.73 4098.22 4098.24 4097.52 4097.85 4099.05 4101.98 4103.58 4104.53 4105.28 4105.81 4105.92 4106.03 4106.15 4104.22 4103.5 4105.15 4104.36 4102.34 4101.75 4101.67 4102.64 4104.75 4107.47 4108.17 4108.18 4106.81 4106.37 4106.39 4105.42 4104.3 4102.84 4102.42 4102.53 4101.86 4101.1 4100.17 4098.21 4095.73 4094.43 4093.54 4093.47 4093.26 4092.98 4089.96 4086.82 4083.43 4080.53 4077.83 4076.16 4074.09 4071.21 4068.3 4065.35 4063.99 4063.19 4063.49 4064.04 4064.72 4066 4066.47 4065.34 4062.73 4059.36 4057.12 4055.85 4056.51 4058.25 4060.55 4061.34 4061.26 4059.39 4056.27 4052.5 4042.23 4032.38 4023.04 4018.19 4015.49 4025.69 4023.75 3997.53 3982.76 3973.48 3987.23 3996.54 3997.17 3988.95 3976.41 3979.42 3977.66 3966.35 3972.92 3988.55 3977.37 3960.26 3931.43 3905.95 3881.97 3825.6 3782.54 3762.24 3735.52 3705.67 3684.94 3666.91 3653.63 3641.81 3630.62 3605.02 3571.2 3520.63 3479.75 3443.47 3384.76 3339.18 3315.87 3268.17 3209.46 3162.01 3118.8 3081.46 3040.5 -999 -999 -999 -999 -999 -999 -999 -999 -999 -999 -999 -999 -999 -999 -999 -999 -999 2119.33 2078.38 2058.42 2048.38 2048.8 2045.96 2036.78 2024.35 2010.37 1999.92 1991.7 1987.63 1984.13 1980.9 1971.81 1964.96 1962.33 1960.66 1959.47 1952.78 1945.24 1935.86 1931.11 1928.64 1926.41 1923.71 1919.98 1916.28 1912.55 1909.18 1905.1 1899.56 1895.5 1892.17 1886.71 1881.43 1876.44 1871.64 1866.91 1860.75 1855.72 1852.73 1848.67 1844.07 1840.16 1835.97 1831.14 1828.9 1827.95 1827.87 1826.18 1821.28 1817.23 1813.59 1808.66 1805.34 1805.02 1803.98 1802.56 1800.06 1798 1796.69 1796.31 1796.37 1794.61 1792.33 1788.99 1785.48 1781.86
3838.28 3845.04 3846.6 3848.24 3850.05 3850.7 3850.78 3848.66 3846.96 3846.11 3845.04 3843.85 3843.07 3842.02 3840.41 3841.55 3844.07 3844.41 3843.3 3839.31 3834.19 3828.5 3829.02 3829.38 3829.43 3831.45 3834.49 3836.85 3837.26 3833.82 3834.92 3838.3 3839.76 3841.34 3843.18 3844.59 3845.8 3847.47 3848.37 3847.77 3845.75 3843.02 3842.51 3842.8 3844.71 3846.67 3848.67 3853 3855.47 3854.24 3853.33 3852.58 3850.92 3848.88 3846.03 3843.07 3840.03 3838.29 3837.07 3836.9 3835.07 3832.36 3819.13 3812.17 3817.55 3819.83 3820.54 3821.38 3820.54 3816.27 3811.52 3806.5 3807.62 3808.11 3807.38 3807.1 3807.05 3808.91 3810.36 3810.97 3810.05 3808.36 3807.98 3808.23 3809.72 3809.27 3807.82 3807.29 3807.38 3808.72 3809.13 3809.07 3808.28 3808.16 3809.31 3810.11 3810.74 3810.99 3811.58 3812.88 3814.92 3817.37 3827.91 3837.86 3846.78 3854.86 3862.58 3865.27 3868.58 3873.27 3877.4 3881.34 3884.95 3889.42 3895.67 3904.12 3913.74 3915.81 3914.84 3907.84 3903.15 3899.57 3898.97 3898.64 3898.85 3899.2 3899.62 3902.38 3904.01 3903.46 3906.9 3912.38 3912.59 3911.97 3909.65 3907.01 3904.19 3905.18 3905.46 3904.33 3904.8 3906.07 3908.99 3911.21 3912.05 3915.31 3919.82 3920.49 3923.41 3930.88 3945.1 3962.96 3994.17 4020.98 4038.77 4048.77 4054.94 4058.55 4061.63 4063.69 4066.83 4070.55 4071.75 4074.94 4082.15 4085.63 4087.25 4090.43 4093.62 4096.89 4096.98 4095.48 4093.72 4093.05 4094.55 4095.51 4096.21 4095.95 4096.27 4097.77 4097.5 4096.34 4097.12 4098.62 4101.55 4103.16 4104.12 4104.83 4105.31 4105.37 4105.53 4105.73 4104.04 4103.4 4104.84 4104.01 4102.04 4101.58 4101.59 4102.51 4104.55 4107.17 4108.01 4108.11 4106.7 4106.21 4106.17 4105.2 4104.03 4102.46 4101.88 4101.8 4101.06 4100.44 4100.05 4098.3 4095.85 4094.49 4093.57 4093.5 4093.29 4093 4089.06 4085.3 4081.84 4078.85 4076.05 4074.37 4072.64 4070.74 4068.14 4065.16 4063.69 4062.7 4062.64 4063.21 4064.11 4065.26 4065.81 4065.18 4062.73 4059.36 4056.69 4055.28 4056.37 4057.65 4059.05 4059.54 4058.85 4055.8 4052.22 4048.35 4036.91 4025.38 4013.46 4007.6 4004.72 4016.5 4014.76 3986.09 3970.09 3960.21 3973.39 3984.59 3991.85 3985.64 3972.66 3975.87 3974.08 3962.29 3969.14 3985.46 3960.25 3932.87 3900.84 3873.36 3848.04 3808.18 3775.57 3755.19 3728.35 3698.35 3677.62 3660.21 3648.72 3638.89 3629.75 3605.8 3573.18 3523.01 3483.02 3447.84 3389.3 3343.8 3320.44 3274.88 3219.24 3172.49 3129.32 3090.85 3050.38 -999 -999 -999 -999 -999 -999 -999 -999 -999 -999 -999 -999 -999 -999 -999 -999 -999 2098.6 2062.62 2044.29 2034.27 2031.49 2027.99 2023.01 2012.01 1998.01 1988.12 1980.4 1976.71 1973.51 1970.52 1960.83 1953.67 1951.26 1949.12 1947.09 1941.88 1936.18 1929.28 1925.35 1922.84 1920.68 1918.11 1914.7 1911.25 1907.76 1904.47 1901.09 1897.43 1894.02 1890.71 1883.89 1877.75 1872.79 1868.06 1863.41 1858.72 1854.64 1851.62 1846.83 1841.14 1837.34 1833.59 1829.86 1827.25 1825.19 1824.94 1823.15 1818.27 1813.03 1807.6 1804.25 1801.25 1798.88 1796.95 1795.25 1794.13 1792.87 1791.27 1791.2 1791.89 1790.96 1789.59 1787.32 1784.18 1780.59
3831.38 3838.09 3839.66 3841.93 3845.72 3847.05 3847.16 3845.78 3844.38 3842.95 3841.85 3840.89 3840.13 3838.92 3836.78 3838.39 3841.92 3842.73 3841.94 3837.98 3831.82 3824.51 3826.41 3827.27 3826.11 3827.79 3830.89 3832.97 3832.93 3828.63 3829.67 3833.39 3834.77 3836.02 3837.01 3838.24 3839.58 3841.02 3841.4 3839.6 3837.19 3834.44 3834.36 3834.69 3835.84 3837.69 3839.9 3845.28 3848.57 3847.72 3847.19 3846.83 3846.63 3845.89 3844.15 3841.21 3837.66 3835.44 3833.2 3830.79 3827.53 3823.72 3812.2 3806.01 3810.38 3812.4 3813.24 3814.27 3814.27 3812.26 3808.63 3804.22 3804.25 3804.06 3803.36 3803.03 3802.9 3804.91 3806.42 3806.91 3806.19 3804.86 3803.91 3804.28 3807.3 3807.35 3805.94 3805.45 3805.38 3806.14 3806.5 3806.66 3806.35 3806.28 3806.67 3807.46 3808.45 3808.15 3807.98 3808.05 3809.63 3811.95 3822.05 3831.93 3841.53 3850.47 3859.17 3861.91 3864.91 3868.54 3872.06 3875.57 3879.31 3884.41 3892.34 3902.42 3913.73 3914.88 3913.34 3906.38 3901.19 3896.82 3896.96 3897.06 3897.13 3897.16 3897.19 3899.31 3900.49 3899.76 3903.54 3909.64 3909.25 3908.55 3907.19 3904.94 3902.23 3903.3 3903.67 3902.66 3902.97 3903.93 3906.79 3909.13 3910.43 3913.8 3918.24 3919.37 3922.54 3929.9 3943.88 3961.41 3993.55 4020.78 4037.94 4047.79 4054.03 4057.59 4060.65 4062.76 4065.82 4069.39 4070.81 4074.08 4081.14 4084.74 4086.63 4089.86 4093.05 4096.21 4096.16 4094.48 4092.78 4092.16 4093.72 4094.75 4095.52 4095.36 4095.65 4096.84 4096.52 4095.44 4096.46 4098.09 4100.96 4102.61 4103.65 4104.4 4104.9 4104.92 4105.1 4105.36 4103.84 4103.29 4104.66 4103.83 4101.89 4101.69 4101.83 4102.67 4104.67 4107.29 4108.25 4108.4 4106.92 4106.34 4106.21 4105.21 4104 4102.33 4101.64 4101.42 4100.59 4099.99 4099.86 4098.18 4095.71 4094.31 4093.36 4093.29 4093.06 4092.74 4088.26 4083.98 4079.96 4076.73 4073.84 4071.55 4069.58 4068.18 4065.69 4062.64 4060.27 4059.31 4061.17 4062.35 4063.24 4064.28 4064.86 4064.52 4062.25 4058.99 4056.07 4054.49 4055.55 4056.51 4057.43 4057.73 4056.49 4052.14 4047.61 4042.93 4032.37 4020.64 4006.36 4000.15 3997.88 4007.65 4004.99 3977.51 3961.48 3950.97 3959.12 3968.09 3978.6 3976.65 3968.59 3964.86 3960.76 3955.62 3965.08 3982.15 3949.4 3916.6 3882.52 3853.95 3827.95 3796.33 3768.97 3748.91 3722.08 3691.93 3671.26 3654.25 3643.87 3635.23 3627.37 3604.31 3572.7 3523.85 3483.78 3447.88 3390.16 3344.75 3320.14 3279.14 3230.76 3184.83 3140.64 3097.61 -999 -999 -999 -999 -999 -999 -999 -999 -999 -999 -999 -999 -999 -999 -999 -999 -999 -999 2078.16 2046.28 2029.37 2019.55 2015.31 2012.14 2011.1 2002.29 1989.71 1979.07 1971.3 1968.93 1966.23 1963.36 1953.61 1946.45 1944.22 1941.55 1938.63 1933.37 1928.37 1923.72 1920.08 1916.9 1915.62 1913.69 1910.49 1907.24 1903.94 1900.19 1896.83 1894.13 1891.11 1887.91 1881.69 1875.93 1870.99 1866.04 1861.03 1857.46 1853.94 1850.43 1845.22 1839.14 1835.73 1832.31 1828.81 1826.12 1823.82 1822.62 1820.23 1815.4 1809.57 1803.2 1800.54 1797.8 1794.84 1792.28 1789.87 1788.6 1787.06 1784.88 1784.67 1785.44 1784.49 1783.34 1781.75 1779.57 1777.13
3822.51 3826.06 3827.73 3831.25 3838.44 3840.91 3840.98 3841 3840.56 3839.24 3838.27 3837.45 3836.71 3835.52 3833.41 3835.39 3839.45 3840.07 3839.73 3837.41 3830.5 3821.22 3824.37 3825.6 3823.07 3824.29 3827.41 3829.26 3829.82 3827.77 3829.33 3832.67 3833.93 3834.17 3832.43 3832.82 3834.32 3834.56 3833.65 3830.44 3828.14 3826.31 3826.85 3827.04 3826.62 3827.57 3829.23 3835.18 3838.93 3838.33 3838.19 3838.29 3840.3 3842.02 3843.16 3841.21 3837.66 3835.44 3831.21 3823.04 3815.55 3808.35 3805.06 3802.79 3802.84 3802.86 3802.89 3803.17 3804.06 3806.05 3805.21 3802.92 3800.77 3799.39 3799.47 3799.51 3799.53 3800.99 3802.09 3802.48 3802.4 3802.09 3800.43 3800.83 3805.32 3805.91 3804.52 3804.11 3804.08 3804.83 3805.02 3804.93 3804.79 3804.37 3803.41 3804.08 3805.6 3805.04 3804.34 3803.32 3804.52 3806.83 3817.2 3827.27 3836.88 3845.01 3852.48 3855.07 3858.67 3864.28 3868.53 3872.11 3876.03 3881.48 3890.08 3901.3 3913.99 3915.19 3913.2 3904.83 3898.55 3893.28 3894.8 3895.83 3895.92 3895.91 3895.85 3897.07 3897.74 3897.24 3901.44 3908.04 3906.97 3905.99 3905.12 3903.79 3902.23 3903.3 3903.65 3902.59 3902.58 3903.1 3906.01 3908.12 3908.69 3912.11 3917.01 3918.88 3922.54 3929.9 3943.71 3961 3993.38 4020.56 4037.07 4046.55 4052.58 4056.03 4059.35 4062.42 4065.65 4068.98 4070.46 4073.57 4080 4083.42 4085.38 4089.36 4092.86 4095.51 4095.28 4093.62 4091.99 4091.44 4093.02 4094.08 4094.9 4094.76 4094.86 4095.44 4095.3 4094.81 4095.87 4097.47 4100.21 4101.9 4103.1 4103.97 4104.55 4104.57 4104.75 4105.02 4103.62 4103.17 4104.61 4103.82 4101.9 4102.08 4102.42 4103.1 4105.12 4107.83 4108.89 4109.06 4107.46 4106.76 4106.5 4105.45 4104.18 4102.43 4101.67 4101.39 4100.45 4099.77 4099.59 4097.85 4095.3 4093.87 4092.91 4092.85 4092.58 4092.2 4087.57 4082.82 4077.78 4074.13 4071.16 4067.65 4064.88 4063.47 4060.92 4057.76 4053.68 4053.02 4059 4061.44 4062.09 4063.03 4063.58 4063.35 4061.27 4058.26 4055.26 4053.47 4054.06 4054.81 4055.67 4055.88 4054.11 4048.4 4042.37 4036.13 4028.5 4017.98 4001.63 3995.64 3994.79 3999 3994.3 3971.56 3956.7 3945.53 3944.28 3946.94 3957.25 3961.98 3964.11 3946.42 3937.78 3946.06 3960.68 3978.56 3944.64 3910.78 3875.82 3846.94 3820.9 3789.54 3762.61 3743.26 3716.57 3686.29 3665.73 3648.94 3638.97 3630.79 3623.43 3600.52 3569.79 3523.12 3482.04 3443.61 3387.32 3341.98 3315.02 3281.16 3244.27 3199.29 3152.86 3101.94 -999 -999 -999 -999 -999 -999 -999 -999 -999 -999 -999 -999 -999 -999 -999 -999 -999 -999 2057.71 2029.02 2013.42 2003.99 1999.94 1998.13 2000.65 1994.97 1985.21 1972.52 1964.19 1964.02 1962.07 1959.19 1949.91 1943.11 1940.98 1937.71 1933.83 1927.03 1921.69 1919 1915.17 1910.71 1911.11 1910.34 1907.26 1904.15 1900.99 1896.27 1892.28 1889.61 1886.74 1883.75 1880.04 1875.93 1870.99 1865.51 1859.71 1856.94 1853.61 1849.14 1843.8 1838.01 1835.28 1832.09 1827.94 1825.47 1823.82 1820.88 1817.37 1812.61 1806.73 1800.26 1797.43 1794.89 1792.82 1789.82 1786.31 1783.38 1780.45 1777.43 1776.62 1776.93 1775.15 1773.55 1772.22 1771.63 1771.44
3813.75 3814.21 3816 3820.69 3831.29 3834.84 3834.88 3836.27 3836.79 3835.58 3834.73 3834.06 3833.33 3832.16 3830.08 3832.43 3837.01 3837.45 3837.52 3836.87 3829.19 3817.97 3822.35 3823.96 3820.04 3820.83 3823.98 3825.59 3826.72 3826.95 3828.99 3831.96 3833.1 3832.37 3827.87 3827.47 3829.13 3828.19 3826.03 3821.39 3819.24 3818.3 3819.43 3819.51 3817.51 3817.6 3818.72 3825.23 3829.43 3829.08 3829.33 3829.88 3834.04 3838.15 3842.21 3841.21 3837.66 3835.44 3829.32 3815.32 3803.74 3793.26 3797.96 3799.66 3795.36 3793.45 3792.71 3792.25 3793.94 3799.97 3801.84 3801.64 3797.34 3794.77 3795.63 3796.03 3796.2 3797.11 3797.81 3798.1 3798.66 3799.35 3796.98 3797.39 3803.39 3804.48 3803.12 3802.78 3802.8 3803.54 3803.56 3803.22 3803.25 3802.5 3800.18 3800.75 3802.78 3801.98 3800.75 3798.64 3799.47 3801.78 3812.42 3822.67 3832.28 3839.61 3845.87 3848.33 3852.48 3860.1 3865.04 3868.68 3872.79 3878.58 3887.86 3900.2 3914.26 3915.5 3913.07 3903.27 3895.94 3889.78 3892.65 3894.6 3894.73 3894.68 3894.53 3894.87 3895.01 3894.76 3899.36 3906.47 3904.72 3903.44 3903.07 3902.66 3902.23 3903.3 3903.63 3902.52 3902.2 3902.28 3905.23 3907.12 3906.95 3910.44 3915.81 3918.39 3922.54 3929.9 3943.55 3960.59 3993.22 4020.35 4036.19 4045.31 4051.14 4054.49 4058.05 4062.11 4065.49 4068.57 4070.12 4073.07 4078.87 4082.13 4084.14 4088.85 4092.68 4094.8 4094.41 4092.77 4091.22 4090.72 4092.33 4093.43 4094.28 4094.17 4094.09 4094.04 4094.09 4094.19 4095.28 4096.86 4099.46 4101.21 4102.56 4103.56 4104.22 4104.21 4104.4 4104.68 4103.4 4103.06 4104.56 4103.8 4101.91 4102.45 4102.99 4103.54 4105.57 4108.37 4109.52 4109.71 4107.99 4107.17 4106.78 4105.69 4104.37 4102.54 4101.7 4101.36 4100.31 4099.54 4099.33 4097.52 4094.9 4093.45 4092.46 4092.41 4092.1 4091.66 4086.88 4081.7 4075.61 4071.57 4068.51 4063.8 4060.23 4058.82 4056.2 4052.93 4047.19 4046.75 4056.9 4060.54 4060.95 4061.8 4062.32 4062.19 4060.3 4057.52 4054.46 4052.47 4052.57 4053.13 4053.93 4054.04 4051.77 4044.67 4037.17 4029.41 4024.66 4015.37 3996.92 3991.2 3991.74 3990.5 3983.7 3965.75 3951.97 3940.15 3929.74 3926.21 3936.32 3947.63 3959.7 3928.42 3915.11 3936.81 3956.33 3975 3939.95 3905.05 3869.2 3840.01 3813.94 3782.85 3756.33 3737.69 3711.13 3680.72 3660.28 3643.69 3634.12 3626.4 3619.53 3596.77 3566.88 3522.43 3480.31 3439.38 3384.5 3339.28 3309.94 3283.23 3257.75 -999 -999 -999 -999 -999 -999 -999 -999 -999 -999 -999 -999 -999 -999 -999 -999 -999 -999 -999 2076.05 2058.14 2037.82 2012.24 1997.87 1988.81 1984.94 1984.39 1990.46 1987.79 1980.77 1966.1 1957.18 1959.22 1957.98 1955.09 1946.27 1939.8 1937.78 1933.91 1929.1 1920.8 1915.1 1914.37 1910.33 1904.63 1906.66 1907.02 1904.07 1901.1 1898.09 1892.42 1887.8 1885.15 1882.43 1879.64 1878.4 1875.93 1870.99 1864.98 1858.41 1856.42 1853.3 1847.85 1842.39 1836.9 1834.83 1831.87 1827.07 1824.82 1823.82 1819.17 1814.53 1809.85 1803.93 1797.37 1794.37 1792 1790.83 1787.38 1782.79 1778.25 1773.97 1770.1 1768.72 1768.58 1766 1763.95 1762.89 1763.85 1765.84
3812.32 3810.66 3812.28 3815.77 3822.98 3825.54 3825.76 3826.85 3827.33 3826.6 3826.11 3825.75 3826.83 3827.05 3825.5 3827.39 3831.04 3831.18 3831.12 3830.65 3825.52 3817.97 3820.22 3820.95 3818.75 3820.01 3823.04 3824.64 3825.95 3826.72 3828.61 3831.1 3831.85 3831.17 3827.66 3827.54 3829.13 3828.19 3826.03 3821.39 3819.24 3818.3 3819.43 3819.51 3817.51 3817.1 3817.49 3821.83 3824.31 3823.16 3822.95 3823.2 3825.53 3828.18 3831.54 3830.27 3826.66 3822.71 3816.4 3805.43 3798.33 3793.05 3795.56 3796.52 3794.52 3792.96 3791.64 3791.25 3792.69 3797.79 3798.78 3797.72 3794.65 3792.9 3793.67 3793.98 3794.06 3795.07 3795.86 3796.25 3796.04 3795.56 3794.27 3794.26 3796.69 3796.82 3795.75 3795.34 3795.33 3796.14 3796.21 3795.9 3796.19 3796.54 3797.08 3797.71 3798.45 3800.24 3800.75 3798.64 3799.47 3801.78 3810.62 3819.8 3829.85 3838.24 3845.87 3848.33 3852.48 3860.1 3865.04 3868.68 3872.79 3878.58 3887.86 3899.54 3912.61 3913.29 3910.09 3899.1 3892.93 3889.03 3891.37 3893.28 3894.41 3894.68 3894.53 3894.08 3893.81 3893.9 3897.84 3903.77 3903.19 3902.69 3902.3 3901.91 3901.52 3902.6 3902.96 3901.88 3901.83 3902.28 3904.1 3905.6 3906.58 3910.44 3915.81 3918.39 3922.49 3929.69 3943.39 3960.59 3991.21 4017.49 4035 4044.95 4051.2 4054.43 4057.93 4062.04 4065.53 4068.75 4070.02 4072.83 4078.79 4082.1 4084.11 4088.43 4092.13 4094.71 4094.12 4091.95 4090.95 4090.83 4092.45 4093.57 4094.45 4094.37 4094.29 4094.22 4094.29 4094.43 4095.5 4097.09 4099.72 4101.47 4102.78 4103.82 4104.53 4104.57 4104.75 4105.01 4103.76 4103.46 4105.08 4104.46 4102.73 4103.2 4103.81 4104.72 4106.92 4109.79 4110.74 4110.81 4109.14 4108.27 4107.78 4106.66 4105.29 4103.38 4102.49 4102.1 4100.94 4100.07 4099.79 4097.9 4095.2 4093.73 4092.73 4092.65 4092.27 4091.75 4086.91 4081.21 4073.66 4069.06 4065.87 4061.04 4056.7 4053.18 4049.79 4046.41 4040.5 4039.8 4049.5 4052.99 4053.4 4053.94 4053.09 4049.35 4044.41 4038.84 4031.95 4027.14 4026.43 4026.65 4027.33 4024.47 4019.17 4008.92 4014.66 4028.14 3999.21 3981.48 3986.43 3970.12 3944.01 3969.36 3971.28 3925.02 3920.02 3934.58 3923.59 3919.87 3930.55 3942.45 3955.13 3922.39 3907.18 3925.92 3946.04 3967.1 3933.29 3898.89 3862.11 3832.77 3806.9 3776.01 3749.66 3731.2 3704.86 3674.67 3654.26 3637.81 3628.61 3621.32 3614.91 3586.15 3554.02 3514.64 3471.91 3427.84 3375.37 3329.49 3293.52 3265.69 -999 -999 -999 -999 -999 -999 -999 -999 -999 -999 -999 -999 -999 -999 -999 -999 -999 -999 -999 -999 2053.96 2036.4 2019.01 2001.56 1987.94 1976.24 1975.3 1977.06 1984.22 1977.3 1963.52 1956.21 1951.44 1951.27 1949.27 1946.33 1939.74 1934.78 1932.83 1929.66 1925.85 1919.5 1913.96 1909.73 1905.71 1901.69 1902.5 1902.15 1899.53 1896.81 1894.02 1889.57 1885.76 1883.1 1880.41 1877.68 1875.56 1872.54 1867.66 1862.27 1856.6 1853.92 1850.39 1845.11 1840.19 1835.41 1833.52 1830.63 1825.69 1823.5 1822.65 1817.93 1812.97 1807.39 1801.76 1796.04 1793.07 1790.38 1788.12 1785.03 1781.47 1776.91 1772.65 1768.85 1766.36 1764.52 1761.87 1759.49 1757.55 1756.91 1756.91
3810.89 3807.07 3808.53 3810.77 3814.65 3816.2 3816.6 3817.39 3817.83 3817.57 3817.45 3817.4 3820.3 3821.91 3820.89 3822.33 3825.04 3824.88 3824.68 3824.39 3821.79 3817.97 3818.06 3817.94 3817.42 3819.18 3822.1 3823.7 3825.18 3826.48 3828.23 3830.24 3830.59 3829.97 3827.43 3827.6 3829.13 3828.19 3826.03 3821.39 3819.24 3818.3 3819.43 3819.51 3817.51 3816.61 3816.25 3818.39 3819.14 3817.22 3816.53 3816.47 3816.97 3818.17 3820.84 3819.29 3815.61 3809.92 3803.48 3795.46 3792.86 3792.83 3793.12 3793.39 3793.66 3792.48 3790.56 3790.25 3791.42 3795.61 3795.7 3793.76 3791.95 3791 3791.71 3791.92 3791.89 3793.01 3793.91 3794.39 3793.42 3791.73 3791.54 3791.05 3789.99 3789.11 3788.33 3787.85 3787.82 3788.7 3788.81 3788.52 3789.09 3790.59 3793.92 3794.66 3794.09 3798.5 3800.75 3798.64 3799.47 3801.78 3808.8 3816.91 3827.4 3836.85 3845.87 3848.33 3852.48 3860.1 3865.04 3868.68 3872.79 3878.58 3887.86 3898.88 3910.95 3911.05 3907.06 3894.92 3889.88 3888.29 3890.08 3891.96 3894.07 3894.68 3894.53 3893.29 3892.61 3893.04 3896.31 3901.05 3901.66 3901.93 3901.53 3901.16 3900.79 3901.89 3902.28 3901.24 3901.45 3902.28 3902.95 3904.08 3906.19 3910.44 3915.81 3918.39 3922.44 3929.48 3943.23 3960.59 3989.18 4014.63 4033.78 4044.58 4051.26 4054.36 4057.8 4061.97 4065.57 4068.92 4069.92 4072.6 4078.72 4082.07 4084.08 4087.99 4091.59 4094.61 4093.82 4091.12 4090.68 4090.93 4092.56 4093.71 4094.61 4094.57 4094.5 4094.4 4094.49 4094.67 4095.73 4097.32 4099.99 4101.72 4103.01 4104.09 4104.84 4104.93 4105.11 4105.34 4104.12 4103.88 4105.59 4105.13 4103.56 4103.95 4104.64 4105.92 4108.29 4111.23 4111.97 4111.92 4110.3 4109.38 4108.79 4107.64 4106.23 4104.24 4103.29 4102.85 4101.57 4100.61 4100.25 4098.28 4095.49 4094.02 4093 4092.88 4092.45 4091.85 4086.94 4080.7 4071.71 4066.54 4063.22 4058.26 4053.12 4047.52 4043.34 4039.84 4033.76 4032.79 4042.05 4045.4 4045.8 4046.04 4043.76 4036.51 4028.51 4020.14 4009.45 4001.88 4000.39 4000.27 4000.82 3995.01 3986.73 3973.49 3992.03 4026.86 3973.68 3948.13 3975.59 3949.23 3896.96 3948.4 3958.44 3885.09 3888.1 3928.96 3917.4 3913.48 3924.72 3937.23 3950.53 3916.31 3899.16 3915.02 3935.69 3959.15 3926.59 3892.68 3854.99 3825.48 3799.82 3769.12 3742.96 3724.67 3698.54 3668.57 3648.2 3631.9 3623.06 3616.2 3610.26 3575.45 3541.19 3506.75 3463.49 3416.27 3366.22 3319.57 3277.19 3248.15 -999 -999 -999 -999 -999 -999 -999 -999 -999 -999 -999 -999 -999 -999 -999 -999 -999 -999 -999 -999 2032.13 2014.9 2000.46 1990.8 1978.03 1963.71 1965.67 1969.72 1977.95 1966.85 1946.4 1946.38 1945.65 1943.33 1940.56 1937.57 1933.22 1929.74 1927.86 1925.39 1922.58 1918.2 1912.77 1905.11 1901.05 1898.73 1898.32 1897.26 1894.95 1892.49 1889.93 1886.71 1883.71 1881.04 1878.38 1875.7 1872.71 1869.12 1864.3 1859.54 1854.77 1851.4 1847.46 1842.35 1837.97 1833.91 1832.2 1829.38 1824.3 1822.16 1821.46 1816.68 1811.37 1804.93 1799.57 1794.7 1791.77 1788.73 1785.41 1782.65 1780.13 1775.56 1771.31 1767.6 1764 1760.44 1757.72 1754.99 1752.21 1749.96 1747.99
3809.66 3805.3 3806.09 3807.51 3810.19 3811.27 3811.54 3811.66 3811.74 3811.72 3811.82 3812 3815.14 3817.19 3817.08 3818.76 3821.37 3821.29 3821.22 3821.17 3820.14 3818.63 3817.63 3816.86 3816.52 3818.47 3821.58 3823.09 3824.62 3826.18 3827.9 3829.71 3829.83 3829.24 3827.22 3827.1 3827.9 3826.69 3824.46 3820.17 3818.33 3817.7 3818.94 3819.02 3816.79 3815.74 3815.28 3815.9 3815.45 3812.81 3811.79 3811.58 3811.66 3812.35 3814.29 3812.75 3809.45 3803.33 3797.44 3791.96 3791.32 3793.1 3792.09 3791.82 3792.99 3791.99 3789.91 3789.81 3790.74 3793.78 3793.16 3790.7 3789.85 3789.42 3789.82 3789.99 3790.05 3790.96 3791.75 3792.27 3790.79 3788.28 3787.98 3787.01 3784.67 3783.55 3783.05 3782.58 3782.54 3783.35 3783.42 3783.12 3783.71 3785.33 3789.03 3790.27 3790.29 3795.36 3798.57 3798.11 3798.97 3800.5 3806.81 3814.71 3826 3835.26 3843.57 3846.23 3850.62 3858.57 3863.46 3866.87 3872.08 3878.58 3887.86 3898.56 3910.13 3905.94 3900.18 3891.06 3887.98 3887.92 3889.44 3891.16 3893.32 3893.96 3893.82 3892.32 3891.38 3891.54 3894.06 3897.77 3898.94 3899.56 3899.09 3899.04 3899.2 3900.35 3900.81 3899.91 3900.29 3901.33 3902 3903.32 3906 3910.02 3914.74 3917.55 3921.85 3929.24 3943.15 3960.59 3988.14 4012.47 4030.24 4041.92 4050.66 4053.68 4057.23 4061.95 4065.24 4067.82 4069.05 4071.84 4077.85 4081.29 4083.48 4087.63 4091.47 4094.75 4093.78 4090.66 4090.57 4091.05 4092.69 4093.84 4094.77 4094.47 4094.33 4094.48 4094.67 4094.89 4095.67 4097.17 4100.16 4101.99 4103.27 4104.39 4105.17 4105.25 4105.4 4105.59 4104.53 4104.42 4106.2 4105.82 4104.37 4104.83 4105.64 4107.19 4109.7 4112.71 4113.26 4113.09 4111.45 4110.44 4109.73 4108.56 4107.12 4105.1 4104.11 4103.63 4102.24 4101.18 4100.75 4098.65 4095.71 4094.37 4093.44 4093.29 4092.81 4092.15 4087.19 4080.4 4069.79 4064.01 4060.55 4054.39 4048.1 4041.33 4036.9 4033.6 4026.97 4024.5 4030.14 4034.5 4038.31 4040.66 4039.09 4029.8 4020.11 4010.14 3997.39 3988.36 3986.43 3986.1 3986.55 3979.07 3969.13 3954.09 3970.44 4002.69 3950.25 3923.84 3947.09 3920.53 3870 3921.51 3931.19 3856.68 3857.53 3895.51 3899.91 3906.47 3918.34 3931.49 3945.47 3909.57 3890.99 3905.64 3916.73 3925.76 3893.21 3858.85 3819.74 3790 3764.65 3740.87 3719.47 3702.37 3677.32 3648.41 3628.32 3612.67 3605.3 3602.72 3602.65 3564.58 3529.48 3498.65 3452.36 -999 -999 -999 -999 -999 -999 -999 -999 -999 -999 -999 -999 -999 -999 -999 -999 -999 -999 -999 -999 -999 -999 -999 -999 2014.02 2014.6 1999.43 1987.16 1980.16 1968.44 1954.42 1956.52 1960.68 1969.02 1956.32 1933.43 1936.65 1937.72 1934.5 1931.59 1928.82 1925.94 1923.46 1921.76 1919.65 1917.31 1913.55 1908.35 1900.22 1896.95 1896.1 1895.23 1894.11 1892.52 1889.67 1886.16 1883.61 1881.04 1878.38 1875.73 1873.08 1869.67 1865.83 1861.06 1856.57 1852.19 1848.57 1844.67 1840.1 1836.14 1832.46 1830.41 1827.48 1822.76 1820.54 1819.54 1815.07 1809.98 1803.56 1798.48 1794.04 1790.28 1786.67 1783.27 1780.82 1778.83 1774.32 1769.99 1765.94 1761.97 1758.02 1755.29 1752.23 1748.48 1745.35 1742.5
3808.59 3805.3 3804.92 3805.89 3809.51 3810.62 3810.46 3809.54 3808.92 3808.9 3809.1 3809.44 3811.24 3812.84 3813.98 3816.59 3819.96 3820.34 3820.67 3820.89 3820.56 3819.96 3818.94 3817.7 3816.04 3817.86 3821.47 3822.83 3824.25 3825.82 3827.6 3829.49 3829.57 3828.98 3827.02 3826.01 3825.44 3823.66 3821.3 3817.7 3816.5 3816.48 3817.95 3818.02 3815.33 3814.48 3814.55 3814.34 3813.12 3809.85 3808.62 3808.42 3809.49 3810.57 3811.74 3810.48 3808.02 3802.76 3798.16 3794.75 3793.73 3793.85 3792.47 3791.79 3792.48 3791.5 3789.69 3789.91 3790.61 3792.29 3791.09 3788.47 3788.28 3788.11 3787.99 3788.16 3788.49 3788.9 3789.34 3789.86 3788.09 3785.15 3783.54 3782.03 3780.62 3780.01 3779.79 3779.42 3779.37 3779.98 3779.94 3779.57 3779.91 3780.67 3782.32 3784.48 3786.98 3790.74 3794.2 3796.99 3797.94 3797.93 3804.64 3813.19 3825.61 3833.41 3838.92 3842.01 3846.89 3855.47 3860.27 3863.2 3870.61 3878.58 3887.86 3898.56 3910.13 3897.98 3889.43 3887.38 3887.22 3887.92 3889.44 3890.86 3892.15 3892.5 3892.4 3891.16 3890.1 3889.4 3891.03 3893.84 3894.98 3895.53 3894.95 3895.53 3896.71 3897.95 3898.54 3897.86 3898.34 3899.41 3901.23 3903.32 3906 3909.17 3912.6 3915.84 3920.72 3928.95 3943.15 3960.59 3988.1 4010.92 4024.37 4036.96 4049.4 4052.36 4056.23 4061.98 4064.51 4065.42 4067.38 4070.54 4076.17 4079.73 4082.3 4087.33 4091.77 4095.11 4093.97 4090.56 4090.6 4091.17 4092.82 4093.98 4094.9 4094.09 4093.78 4094.45 4094.84 4095.09 4095.32 4096.66 4100.23 4102.28 4103.57 4104.73 4105.52 4105.55 4105.63 4105.74 4105 4105.1 4106.89 4106.57 4105.18 4105.84 4106.84 4108.57 4111.18 4114.25 4114.65 4114.34 4112.61 4111.47 4110.62 4109.43 4107.98 4105.98 4104.98 4104.47 4102.96 4101.8 4101.3 4099.03 4095.84 4094.79 4094.04 4093.88 4093.36 4092.66 4087.66 4080.24 4067.91 4061.42 4057.8 4049.38 4041.52 4034.52 4030.35 4027.55 4020.02 4014.68 4013.71 4020.22 4030.77 4037.65 4038.91 4029.1 4018.93 4008.51 3995.39 3986.08 3984.05 3983.61 3983.97 3976.02 3965.57 3949.93 3949.37 3955.98 3928.39 3907.71 3901.26 3883.85 3861.79 3888.39 3889.55 3838.81 3827.63 3835 3870.79 3898.71 3911.25 3925.13 3939.87 3902.08 3882.46 3897.59 3888.77 3867.57 3833.88 3798.15 3757.25 3727.19 3702.27 3691.57 3679.41 3664.4 3641.31 3614.24 3594.67 3580.21 3575.3 3580.9 3591.98 3553.4 3518.73 3490.08 3438.21 -999 -999 -999 -999 -999 -999 -999 -999 -999 -999 -999 -999 -999 -999 -999 -999 -999 -999 -999 -999 -999 -999 -999 -999 1999.51 2000.81 1989.38 1978.71 1969.37 1958.97 1948.09 1947.64 1949.83 1957.32 1945.46 1924.21 1926.79 1927.55 1924.64 1922.18 1919.93 1917.76 1915.86 1914.44 1912.39 1909.99 1905.47 1900.65 1895 1893.37 1893.72 1893.17 1892.64 1892.14 1888.27 1882.64 1880.2 1877.71 1875.06 1872.43 1869.78 1866.4 1862.6 1857.88 1853.31 1848.79 1845.4 1841.96 1838.31 1834.68 1831.03 1828.12 1824.91 1821.02 1818.59 1816.86 1813.08 1808.76 1803.25 1798.48 1794.04 1788.59 1784.18 1781.65 1779.52 1777.55 1773.16 1768.65 1763.84 1760.22 1757.19 1754.5 1751.12 1746.31 1742.94 1740.27
3807.55 3805.3 3803.77 3804.27 3808.84 3809.97 3809.4 3807.44 3806.14 3806.11 3806.42 3806.9 3807.39 3808.51 3810.93 3814.45 3818.56 3819.4 3820.12 3820.62 3820.99 3821.29 3820.24 3818.55 3815.55 3817.26 3821.36 3822.56 3823.88 3825.46 3827.3 3829.28 3829.32 3828.72 3826.82 3824.92 3823 3820.67 3818.16 3815.26 3814.69 3815.28 3816.97 3817.04 3813.88 3813.23 3813.83 3812.8 3810.82 3806.92 3805.49 3805.29 3807.33 3808.82 3809.21 3808.25 3806.59 3802.19 3798.84 3797.54 3796.11 3794.6 3792.85 3791.77 3791.97 3791.01 3789.46 3790.02 3790.49 3790.79 3789.05 3786.26 3786.73 3786.82 3786.17 3786.35 3786.95 3786.86 3786.96 3787.48 3785.42 3782.05 3779.16 3777.09 3776.63 3776.52 3776.57 3776.29 3776.24 3776.64 3776.49 3776.05 3776.16 3776.09 3775.68 3778.78 3783.7 3786.19 3789.85 3795.93 3796.92 3795.38 3802.48 3811.67 3825.23 3831.57 3834.33 3837.83 3843.19 3852.41 3857.11 3859.58 3869.15 3878.58 3887.86 3898.56 3910.13 3890.17 3878.75 3883.83 3886.47 3887.92 3889.44 3890.58 3890.98 3891.06 3890.99 3890.01 3888.84 3887.27 3888.03 3889.97 3891.06 3891.55 3890.86 3892.07 3894.26 3895.57 3896.3 3895.85 3896.42 3897.5 3900.47 3903.32 3906 3908.32 3910.47 3914.15 3919.59 3928.67 3943.15 3960.59 3988.05 4009.45 4018.51 4032.09 4048.16 4051.06 4055.23 4062.02 4063.79 4063.05 4065.73 4069.25 4074.51 4078.19 4081.13 4087.03 4092.08 4095.48 4094.16 4090.47 4090.63 4091.29 4092.95 4094.12 4095.04 4093.71 4093.23 4094.42 4095.01 4095.3 4094.97 4096.14 4100.31 4102.56 4103.86 4105.07 4105.87 4105.85 4105.86 4105.9 4105.47 4105.78 4107.58 4107.31 4105.99 4106.84 4108.03 4109.94 4112.65 4115.78 4116.03 4115.58 4113.75 4112.49 4111.5 4110.29 4108.83 4106.85 4105.84 4105.3 4103.68 4102.42 4101.85 4099.39 4095.98 4095.21 4094.64 4094.46 4093.9 4093.16 4088.13 4080.11 4066.02 4058.86 4055.08 4044.45 4035.04 4027.8 4023.88 4021.57 4013.17 4005.09 3997.48 4006.22 4023.34 4034.65 4038.74 4028.39 4017.75 4006.9 3993.41 3983.82 3981.68 3981.15 3981.42 3973.02 3962.06 3945.8 3928.57 3910.79 3906.83 3892.24 3856.53 3848.37 3853.7 3856.29 3848.88 3821.56 3798.29 3776.89 3842.18 3891.04 3904.27 3918.86 3934.34 3894.71 3874.05 3889.67 -999 -999 -999 -999 -999 -999 -999 -999 -999 -999 -999 -999 -999 -999 -999 -999 -999 3542.39 -999 -999 -999 -999 -999 -999 -999 -999 -999 -999 -999 -999 -999 -999 -999 -999 -999 -999 -999 -999 -999 2067.12 2080.34 -999 -999 -999 -999 1985.35 1987.35 1979.5 1970.44 1958.77 1949.7 1941.86 1938.95 1939.22 1945.87 1934.83 1915.16 1917.12 1917.57 1914.99 1912.96 1911.2 1909.73 1908.38 1907.25 1905.24 1902.79 1897.55 1893.05 1889.88 1889.85 1891.38 1891.13 1891.17 1891.79 1886.86 1879.17 1876.84 1874.42 1871.79 1869.16 1866.52 1863.18 1859.42 1854.74 1850.1 1845.45 1842.27 1839.27 1836.54 1833.23 1829.61 1825.86 1822.37 1819.3 1816.66 1814.21 1811.11 1807.54 1802.95 1798.48 1794.04 1786.92 1781.7 1780.07 1778.23 1776.28 1772.01 1767.33 1761.76 1758.51 1756.38 1753.73 1750.03 1744.15 1740.56 1738.07
3804.25 3803.29 3802.82 3803.41 3806.03 3806.96 3807.02 3806.15 3805.68 3806 3806.35 3806.75 3807.26 3808.42 3810.91 3814.45 3818.56 3819.99 3820.92 3820.82 3821.42 3822.36 3822.65 3822.51 3821.54 3823.12 3826.05 3827.46 3828.78 3829.93 3830.87 3831.74 3831.19 3830.18 3828.25 3826.52 3824.88 3822.59 3820.12 3817.24 3816.65 3817.19 3818.5 3818.8 3817.11 3816.04 3815.32 3814.2 3812.13 3808.12 3806.19 3805.29 3805.66 3805.94 3806.07 3806.27 3806.48 3803.69 3800.91 3798.04 3796.65 3795.95 3793.39 3791.78 3792.07 3791.05 3789.37 3789.96 3790.11 3789.32 3787.61 3785.39 3785.17 3784.6 3783.34 3783.48 3784.32 3783.69 3783.44 3783.98 3781.29 3776.97 3774.97 3773.38 3772.53 3772.18 3772.07 3772.01 3772.08 3772.44 3772.35 3772.02 3772.23 3772.25 3771.9 3773.85 3776.99 3778.87 3782.32 3789 3790.24 3788.79 3796.97 3807.46 3822.8 3830.46 3834.33 3837.83 3842.8 3850.79 3854.93 3857.16 3864.15 3871.89 3881.33 3890.77 3900.36 3883.92 3874.39 3878.13 3882.57 3887.34 3888.67 3889.61 3889.83 3889.53 3888.96 3888.38 3887.37 3885.46 3886.2 3888.27 3889.19 3889.56 3888.84 3890.1 3892.36 3893.62 3894.35 3894.03 3894.74 3895.97 3900.11 3903.26 3904.4 3907.06 3910.47 3914.15 3919.16 3926.88 3940.52 3957.37 3982.99 4003.18 4012.45 4023.65 4036.02 4040.12 4044.7 4050.28 4054.04 4056.86 4060.41 4064.37 4069.17 4073.15 4076.74 4085.32 4092.37 4096.42 4094.86 4090.51 4090.83 4091.81 4094.16 4095.06 4095.28 4094.56 4094.31 4094.94 4095.38 4095.71 4095.22 4096.27 4100.41 4102.76 4104.22 4105.32 4106.08 4106.19 4106.27 4106.34 4105.9 4106.21 4108.02 4107.82 4106.61 4107.59 4108.91 4110.95 4113.71 4116.87 4116.91 4116.3 4114.36 4113 4111.92 4110.71 4109.26 4107.32 4106.31 4105.74 4104.04 4102.7 4102.07 4098.73 4094.01 4094.54 4094.29 4092.41 4091.26 4090.44 4085.41 4076.59 4060.05 4051.94 4047.9 4036.93 4027.19 4019.66 4013.27 4007.44 4006.83 4003.9 3996.04 4000.12 4010.32 4022.42 4029.35 4026.1 4017.14 4005.38 3991.41 3981.42 3979.06 3978.39 3978.56 3969.9 3958.55 3941.61 3920.81 3898.12 3897.77 3886.93 3855.26 3844.48 3844.01 3846.52 3838.74 3810.5 3786.68 3764.91 3803.04 3842.48 3886.21 3892.16 3879.83 3859.3 3839.99 3821.09 -999 -999 -999 -999 -999 -999 -999 -999 -999 -999 -999 -999 -999 -999 -999 -999 -999 3452.16 -999 -999 -999 -999 -999 -999 -999 -999 -999 -999 -999 -999 -999 -999 -999 -999 -999 -999 -999 -999 -999 -999 2053.07 -999 -999 -999 1985.19 1972.31 1971.03 1969.31 1964.33 1952.62 1940.38 1927.91 1929.78 1933.26 1939.88 1931.28 1915.16 1914.85 1913.8 1911.33 1909.43 1907.8 1906.46 1905.24 1904.21 1902.51 1900.45 1896.62 1892.66 1888.28 1887.92 1889.54 1889.12 1888.72 1888.34 1884.62 1879.17 1876.84 1874.42 1871.79 1869.16 1866.52 1863.18 1859.42 1854.74 1850.1 1845.45 1842.27 1839.27 1836.54 1832.49 1827.78 1824.01 1820.88 1818.94 1816.66 1814.21 1811.11 1807.54 1802.95 1797.39 1791.34 1785.85 1781.47 1779.13 1776.09 1772.69 1769.18 1765.47 1761.31 1758.24 1755.71 1752.35 1748.44 1743.36 1739.91 1737.25
3800.92 3801.26 3801.87 3802.51 3803.21 3803.91 3804.62 3804.85 3805.22 3805.88 3806.29 3806.59 3807.13 3808.33 3810.89 3814.45 3818.56 3820.6 3821.72 3821.02 3821.85 3823.45 3825.09 3826.54 3827.58 3829.06 3830.79 3832.41 3833.73 3834.46 3834.5 3834.22 3833.07 3831.65 3829.69 3828.14 3826.78 3824.53 3822.09 3819.24 3818.62 3819.11 3820.05 3820.6 3820.35 3818.9 3816.83 3815.61 3813.45 3809.35 3806.91 3805.29 3803.97 3803.04 3802.91 3804.27 3806.37 3805.21 3802.98 3798.57 3797.2 3797.32 3793.92 3791.78 3792.16 3791.08 3789.27 3789.91 3789.71 3787.85 3786.15 3784.51 3783.59 3782.36 3780.49 3780.59 3781.68 3780.49 3779.89 3780.46 3777.13 3771.86 3770.76 3769.64 3768.4 3767.81 3767.54 3767.69 3767.9 3768.21 3768.17 3767.96 3768.27 3768.39 3768.1 3768.88 3770.23 3771.51 3774.75 3782.02 3783.53 3782.16 3791.42 3803.23 3820.32 3829.33 3834.33 3837.83 3842.39 3849.17 3852.73 3854.72 3859.1 3865.16 3874.76 3882.94 3890.54 3877.65 3869.98 3872.42 3878.62 3886.77 3887.89 3888.64 3888.67 3887.98 3886.92 3886.74 3885.88 3883.65 3884.36 3886.55 3887.3 3887.55 3886.8 3888.11 3890.45 3891.65 3892.38 3892.2 3893.05 3894.42 3899.76 3903.18 3902.8 3905.78 3910.47 3914.15 3918.7 3925.08 3937.87 3954.12 3977.87 3996.87 4006.35 4015.18 4023.84 4029.14 4034.11 4038.5 4044.21 4050.62 4055.06 4059.46 4063.81 4068.07 4072.32 4083.6 4092.68 4097.35 4095.57 4090.56 4091.03 4092.34 4095.36 4096.02 4095.51 4095.43 4095.4 4095.47 4095.74 4096.13 4095.47 4096.4 4100.51 4102.95 4104.58 4105.56 4106.29 4106.53 4106.68 4106.79 4106.34 4106.65 4108.46 4108.34 4107.24 4108.35 4109.81 4111.97 4114.79 4117.96 4117.81 4117.02 4114.97 4113.52 4112.34 4111.13 4109.69 4107.8 4106.78 4106.19 4104.4 4102.99 4102.3 4098.06 4092.03 4093.87 4093.91 4090.36 4088.59 4087.71 4082.67 4073.02 4054.08 4044.98 4040.67 4029.36 4019.3 4011.48 4002.63 3993.27 4000.5 4002.69 3994.6 3994.02 3997.25 4010.14 4019.99 4023.71 4016.52 4003.85 3989.38 3979 3976.42 3975.61 3975.68 3966.76 3955 3937.39 3913.03 3885.41 3888.69 3881.64 3853.93 3840.6 3834.28 3836.7 3828.55 3799.41 3775.03 3752.89 3764.16 3795.04 3867.74 3865.75 3826.31 3824.31 3805.77 3754.67 -999 -999 -999 -999 -999 -999 -999 -999 -999 -999 -999 -999 -999 -999 -999 -999 -999 3365.82 -999 -999 -999 -999 -999 -999 -999 -999 -999 -999 -999 -999 -999 -999 -999 -999 -999 -999 -999 -999 -999 -999 2026.36 -999 -999 1997.81 1971.03 1959.33 1954.83 1959.17 1958.19 1946.46 1931.09 1914.03 1920.65 1927.27 1933.86 1927.69 1915.16 1912.54 1910.01 1907.65 1905.88 1904.38 1903.18 1902.09 1901.16 1899.76 1898.11 1895.69 1892.25 1886.69 1885.98 1887.68 1887.08 1886.24 1884.89 1882.35 1879.17 1876.84 1874.42 1871.79 1869.16 1866.52 1863.18 1859.42 1854.74 1850.1 1845.45 1842.27 1839.27 1836.54 1831.76 1825.94 1822.15 1819.38 1818.56 1816.66 1814.21 1811.11 1807.54 1802.95 1796.3 1788.62 1784.77 1781.23 1778.19 1773.94 1769.09 1766.34 1763.61 1760.83 1757.97 1755.03 1750.96 1746.85 1742.55 1739.26 1736.43
3797.2 3798.79 3800.01 3800.99 3801.54 3802.4 3803.44 3804.21 3804.95 3805.62 3806.11 3806.52 3806.78 3807.89 3810.68 3814.37 3818.56 3821.07 3822.52 3821.9 3822.61 3823.98 3826.31 3828.64 3831.07 3832.94 3834.58 3835.79 3836.9 3837.81 3837.46 3836.48 3835.09 3833.5 3831.5 3830.04 3828.83 3826.87 3824.51 3821.29 3820.57 3821.09 3821.81 3822.26 3822.16 3820.61 3818.33 3817.06 3814.8 3810.53 3807.6 3805.29 3803.76 3802.67 3802.43 3803.98 3806.41 3805.85 3803.95 3799.31 3798.01 3798.35 3794.33 3791.81 3792.23 3791.12 3789.22 3789.87 3789.49 3787.05 3785.26 3783.77 3782.37 3780.81 3778.88 3778.7 3779.37 3778.03 3777.26 3777.63 3774.41 3769.4 3768.15 3766.83 3765.32 3764.75 3764.64 3764.93 3765.2 3765.45 3765.1 3764.45 3764.28 3764.13 3764.02 3764.28 3764.72 3765.66 3768.35 3774.58 3776.34 3775.88 3786.16 3798.97 3817.15 3826.68 3831.95 3835.59 3840.06 3846.27 3849.43 3851.09 3852.9 3857.62 3868.25 3874.75 3879.2 3870.57 3865.76 3868.61 3875.43 3884.32 3885.74 3886.79 3887.16 3886.6 3885.57 3885.08 3884 3881.71 3882.69 3885.34 3886.04 3886.26 3885.52 3886.58 3888.54 3889.79 3890.74 3891.13 3892.21 3893.66 3898.86 3902.18 3901.77 3905.17 3910.54 3914.29 3918.64 3924.26 3933.75 3945.21 3967.35 3986.18 3998.39 4007.35 4014.82 4020.88 4026.06 4029.54 4035.15 4041.87 4046.35 4050.53 4054.14 4058.48 4063.24 4075.82 4086.01 4091.49 4092.31 4090.9 4090.94 4092 4095.12 4096 4095.78 4095.99 4096.14 4096.15 4096.2 4096.25 4095.97 4096.99 4100.69 4103.25 4105.27 4106.04 4106.65 4106.94 4107.14 4107.29 4106.87 4107.19 4109.01 4108.98 4108.02 4109.24 4110.78 4113.02 4115.84 4118.98 4118.73 4117.86 4115.73 4114.21 4112.97 4111.79 4110.4 4108.53 4107.35 4106.5 4104.86 4103.52 4102.79 4097.92 4090.94 4092.07 4091.36 4086.89 4084.77 4083.8 4077.41 4066.36 4045.83 4036.01 4031.39 4019.64 4009.17 4000.94 3989.6 3976.6 3989.14 3993.71 3982.32 3983.05 3990 4003.47 4014.86 4022.19 4015.74 4002.38 3987.41 3976.64 3973.86 3972.14 3970.9 3961.28 3948.65 3929.75 3903.91 3874.67 3880.24 3875.11 3848.71 3833.8 3824.4 3823 3813.29 3786.87 -999 -999 -999 -999 -999 -999 -999 -999 -999 -999 -999 -999 -999 2544.88 2522.19 -999 -999 -999 -999 -999 -999 -999 -999 -999 -999 -999 -999 -999 -999 -999 -999 -999 -999 -999 -999 -999 -999 -999 -999 -999 -999 -999 -999 -999 -999 -999 1890.65 1883.76 -999 -999 -999 -999 -999 1975.92 1961.75 1948.61 1935.86 1947.08 1950.62 1938.96 1923.88 1907.22 1916.18 1923.76 1928.58 1923.35 1913.11 1909.67 1906.63 1904.37 1902.67 1901.24 1900.22 1899.27 1898.43 1897.22 1895.81 1894.15 1891.2 1885.68 1884.63 1885.78 1885.1 1884.04 1882.22 1880.28 1878.27 1875.95 1873.55 1870.9 1868.28 1865.64 1862.3 1858.53 1853.83 1848.69 1843.29 1840.17 1837.21 1834.51 1829.77 1824.01 1820.24 1817.51 1816.78 1814.92 1812.49 1809.94 1806.6 1801.65 1794.91 1787.28 1783.93 1780.38 1776.31 1771.73 1766.87 1764.52 1762.29 1760.24 1757.24 1753.73 1749.72 1745.76 1741.85 1738.75 1736.03
3793.05 3795.83 3797.19 3798.82 3800.99 3802.4 3803.44 3804.21 3804.84 3805.21 3805.8 3806.52 3806.23 3807.1 3810.3 3814.22 3818.56 3821.4 3823.33 3823.48 3823.72 3823.98 3826.31 3828.89 3832.03 3834.82 3837.48 3837.66 3838.35 3840.03 3839.79 3838.58 3837.29 3835.76 3833.73 3832.26 3831.07 3829.66 3827.4 3823.42 3822.52 3823.15 3823.81 3823.82 3822.56 3821.23 3819.87 3818.56 3816.2 3811.7 3808.25 3805.29 3805.04 3804.81 3804.64 3805.39 3806.59 3805.61 3803.81 3800.28 3799.11 3799.07 3794.64 3791.85 3792.28 3791.15 3789.22 3789.83 3789.42 3786.93 3784.93 3783.16 3781.49 3779.92 3778.47 3777.75 3777.35 3776.26 3775.51 3775.44 3773.07 3769.55 3767.06 3764.88 3763.24 3762.94 3763.32 3763.66 3763.94 3764.08 3763.06 3761.43 3760.18 3759.42 3759.58 3759.92 3760.34 3761.2 3762.95 3766.58 3768.58 3769.83 3781.04 3794.61 3813.2 3822.48 3827.13 3831.08 3835.77 3842.05 3844.96 3846.22 3845.5 3849.17 3861.64 3865.96 3866.13 3862.47 3861.66 3866.61 3872.93 3879.96 3882.17 3884.04 3885.25 3885.36 3884.9 3883.38 3881.69 3879.6 3881.17 3884.61 3885.39 3885.67 3884.95 3885.47 3886.61 3888.01 3889.41 3890.79 3892.21 3893.66 3897.4 3900.26 3901.27 3905.23 3910.69 3914.57 3918.95 3924.41 3927.99 3930.53 3951.36 3971.04 3988.37 3999.97 4008.73 4015.13 4020.33 4023.19 4026.67 4030.47 4034.14 4037.44 4040.07 4044.29 4049.38 4061.87 4072.32 4078.75 4085.09 4091.56 4090.57 4090.79 4093.43 4095 4096.07 4096.25 4096.53 4097.01 4096.75 4096.08 4096.71 4098.06 4100.96 4103.66 4106.32 4106.77 4107.16 4107.44 4107.65 4107.84 4107.49 4107.86 4109.69 4109.76 4108.97 4110.26 4111.86 4114.1 4116.88 4119.95 4119.7 4118.82 4116.65 4115.09 4113.82 4112.72 4111.38 4109.52 4108.03 4106.7 4105.42 4104.32 4103.54 4098.27 4090.73 4089.13 4086.56 4081.95 4079.73 4078.67 4069.58 4056.5 4035.21 4024.89 4019.91 4007.62 3996.62 3987.89 3973.88 3957.16 3972.51 3976.81 3959.23 3967.16 3988.34 4002.19 4013.89 4021.42 4014.75 4000.96 3985.46 3974.29 3971.35 3967.9 3964.13 3953.4 3939.38 3918.61 3893.26 3865.66 3872.22 3867.27 3839.52 3823.92 3814.17 3805.32 3792.85 3772.62 -999 -999 -999 -999 -999 -999 -999 -999 -999 -999 -999 -999 -999 2506.81 2490.71 2493.26 -999 -999 -999 -999 -999 -999 -999 -999 -999 -999 -999 -999 -999 -999 -999 -999 -999 -999 -999 -999 -999 -999 -999 -999 -999 -999 -999 -999 -999 -999 1876.83 1878.27 -999 -999 -999 -999 -999 1956.19 1956.73 1939.71 1913.94 1932.74 1941.49 1930.01 1918.59 1907.22 1916.18 1922.58 1923.95 1918.21 1909 1906.19 1903.61 1901.42 1899.74 1898.31 1897.51 1896.73 1895.97 1894.85 1893.53 1891.96 1889.51 1885.25 1883.83 1883.78 1883.12 1882.09 1880.3 1878.41 1876.44 1874.17 1871.78 1869.12 1866.49 1863.85 1860.52 1856.75 1852 1845.85 1838.96 1835.94 1833.07 1830.43 1826.51 1821.95 1818.23 1815.23 1813.58 1811.42 1809.01 1807.56 1804.7 1799.03 1793.2 1787.28 1783.29 1778.86 1773.47 1769.4 1765.98 1763.68 1761.51 1759.51 1756.03 1751.77 1748.59 1745.18 1741.25 1738.39 1736.03
3788.95 3792.9 3794.4 3796.65 3800.46 3802.4 3803.44 3804.21 3804.74 3804.81 3805.5 3806.52 3805.68 3806.32 3809.92 3814.07 3818.56 3821.73 3824.13 3825.05 3824.81 3823.98 3826.31 3829.13 3832.99 3836.69 3840.35 3839.52 3839.78 3842.25 3842.11 3840.65 3839.47 3838 3835.94 3834.47 3833.29 3832.43 3830.28 3825.53 3824.45 3825.19 3825.79 3825.37 3822.94 3821.84 3821.39 3820.05 3817.6 3812.86 3808.9 3805.29 3806.29 3806.93 3806.84 3806.79 3806.77 3805.38 3803.66 3801.26 3800.19 3799.78 3794.95 3791.89 3792.33 3791.18 3789.22 3789.81 3789.35 3786.81 3784.61 3782.55 3780.62 3779.03 3778.08 3776.8 3775.36 3774.51 3773.78 3773.28 3771.75 3769.7 3766 3762.96 3761.18 3761.15 3762.01 3762.4 3762.68 3762.73 3761.03 3758.44 3756.13 3754.75 3755.19 3755.61 3756.01 3756.79 3757.64 3758.65 3760.93 3763.87 3775.98 3790.3 3809.31 3818.32 3822.37 3826.61 3831.53 3837.87 3840.54 3841.4 3838.2 3840.82 3855.15 3857.28 3853.28 3854.46 3857.58 3864.66 3870.45 3875.66 3878.64 3881.3 3883.38 3884.13 3884.23 3881.7 3879.4 3877.52 3879.68 3883.88 3884.74 3885.09 3884.39 3884.37 3884.69 3886.25 3888.08 3890.47 3892.21 3893.66 3895.97 3898.33 3900.8 3905.29 3910.83 3914.85 3919.27 3924.56 3922.24 3916.11 3935.65 3956.09 3978.57 3992.69 4002.72 4009.46 4014.68 4016.92 4018.29 4019.24 4022.12 4024.57 4026.22 4030.34 4035.75 4048.14 4058.83 4066.22 4078.02 4092.22 4090.21 4089.59 4091.75 4094.01 4096.36 4096.51 4096.92 4097.87 4097.28 4095.92 4097.43 4099.13 4101.22 4104.08 4107.35 4107.49 4107.67 4107.93 4108.16 4108.38 4108.1 4108.52 4110.36 4110.54 4109.9 4111.27 4112.93 4115.18 4117.91 4120.9 4120.66 4119.77 4117.56 4115.96 4114.66 4113.64 4112.35 4110.5 4108.69 4106.89 4105.98 4105.1 4104.28 4098.62 4090.52 4086.24 4081.83 4077.08 4074.74 4073.59 4061.87 4046.79 4024.74 4013.94 4008.6 3995.79 3984.28 3975.04 3958.42 3938.1 3956.16 3960.29 3936.55 3951.64 3986.71 4000.92 4012.94 4020.66 4013.76 3999.55 3983.53 3971.97 3968.87 3963.7 3957.46 3945.63 3930.27 3907.62 3882.77 3856.78 3864.29 3859.55 3830.44 -999 -999 -999 -999 -999 -999 -999 -999 -999 -999 -999 -999 -999 -999 -999 -999 2456.9 2466.8 2470.14 2460.37 2446.11 2429.64 2418.61 2412.48 2415.9 2438.65 2472.02 2503.06 2543.54 -999 -999 -999 -999 -999 -999 -999 -999 -999 -999 -999 -999 -999 -999 -999 -999 -999 -999 -999 -999 -999 1892.75 1863.34 1872.82 1885.28 1904.04 1899.52 1883.44 1912.28 1936.84 1951.97 -999 1892.71 1918.69 1932.53 1921.24 1913.41 1907.22 1916.18 1921.46 1919.35 1913.16 1904.94 1902.76 1900.62 1898.5 1896.85 1895.42 1894.84 1894.22 1893.54 1892.51 1891.28 1889.79 1887.82 1884.84 1883.04 1881.81 1881.16 1880.15 1878.4 1876.55 1874.64 1872.4 1870.03 1867.36 1864.72 1862.09 1858.76 1854.98 1850.19 1843.04 1834.68 1831.77 1828.99 1826.4 1823.29 1819.91 1816.25 1812.98 1810.4 1807.97 1805.59 1805.2 1802.82 1796.43 1791.51 1787.28 1782.67 1777.38 1770.66 1767.1 1765.09 1762.85 1760.73 1758.78 1754.82 1749.84 1747.47 1744.6 1740.66 1738.03 1736.03
3786.79 3790.08 3792.69 3795.88 3800.27 3802.4 3803.44 3804.21 3804.74 3804.81 3805.5 3806.52 3805.68 3806.32 3809.93 3814.38 3819.28 3822.88 3825.29 3825.33 3824.81 3823.98 3826.92 3829.96 3833.19 3837.02 3841.17 3841.53 3842.44 3844.42 3843.94 3842.22 3840.87 3839.31 3837.34 3835.7 3834.22 3833.53 3832.48 3830.74 3830.01 3829.83 3829.91 3829.1 3826.54 3824.86 3823.62 3822.77 3820.83 3816.7 3813.51 3810.75 3809.1 3807.91 3807.72 3807.3 3806.77 3805.38 3803.66 3801.26 3800.19 3799.78 3794.75 3791.53 3791.84 3790.88 3789.25 3789.33 3788.54 3786.06 3784.01 3782.16 3780.54 3779.1 3777.95 3776.83 3775.69 3774.59 3773.7 3773.21 3771.85 3770.04 3765.99 3762.71 3760.9 3760.06 3759.72 3760.07 3760.22 3759.99 3759 3757.6 3756.08 3755.11 3755.2 3755.42 3755.72 3756.14 3756.83 3758.07 3759.76 3761.72 3773.03 3783.88 3793.74 3800.54 3805.74 3811.35 3816.91 3822.36 3825.02 3826.28 3825.39 3828.75 3840.58 3845.78 3847.57 3850.68 3854.43 3859.39 3861.79 3862.96 3866.48 3869.22 3870.42 3871.87 3873.45 3871.24 3870.92 3874.52 3878.32 3882.34 3881.64 3880.91 3880.13 3881.02 3882.74 3884.36 3885.9 3887.26 3889.23 3891.49 3893.75 3896.55 3900.51 3904.17 3907.75 3907.05 3908.47 3914.34 3912.45 3906.66 3928.14 3947.76 3963.5 3976.6 3988.41 3996.7 4003.68 4008.15 4010.97 4013.01 4017.59 4021.24 4023 4027.61 4033.7 4047.31 4058.83 4066.22 4077.49 4090.88 4086.72 4083.96 4083.91 4085.78 4088.61 4090.83 4092.98 4094.98 4095.91 4096.3 4097.12 4098.68 4101.81 4104.63 4107.35 4107.63 4107.94 4108.31 4108.56 4108.76 4108.36 4108.79 4110.91 4111.29 4110.79 4112.23 4113.93 4116.22 4118.81 4121.58 4121.24 4120.24 4117.92 4116.21 4114.8 4113.68 4112.31 4110.43 4107.89 4105.01 4103.35 4102.36 4102.75 4095.99 4085.68 4082.01 4077.97 4073.09 4070.59 4069.26 4054.63 4037.33 4014.46 4003.1 3997.3 3983.94 3970.85 3957.9 3945.92 3934.16 3952.81 3956.9 3931.84 3933.98 3950 3969.93 3988.13 4002.99 4004.61 3999.55 3981.54 3968.59 3965.28 3959.49 3952.43 3939.8 3923.45 3899.42 3873.05 3845.49 3853.84 3849.27 3818.96 -999 -999 -999 -999 -999 -999 -999 -999 -999 -999 -999 -999 -999 -999 -999 -999 2435.69 2438.61 2440.58 2441.15 2430.35 2414.07 2408.83 2406.25 2408.71 2422.84 2443.39 2475.94 2513.77 -999 -999 -999 -999 -999 -999 -999 -999 -999 -999 -999 -999 -999 -999 -999 -999 -999 -999 -999 -999 -999 1884.53 1857.11 1865.68 1877.49 1896.18 1890.32 1872.32 1898.37 1919.08 1928.32 1915.91 1892.71 1907.72 1916.35 1912.52 1907.42 1901.75 1906.66 1909.29 1907.5 1902.47 1895.78 1893.92 1892.19 1890.71 1889.42 1888.22 1889.23 1889.73 1889.13 1887.36 1885 1884.9 1883.9 1881.05 1879.39 1878.32 1877.56 1876.45 1874.63 1872.88 1871.15 1868.88 1866.52 1863.91 1861.37 1858.84 1855.74 1852.13 1847.42 1841.4 1834.68 1831.77 1828.99 1826.4 1823.29 1819.91 1816.25 1812.98 1810.4 1807.97 1805.59 1804.29 1801.6 1796.13 1790.55 1784.9 1779.73 1774.31 1768.27 1764.96 1762.97 1760.84 1758.8 1756.89 1753.39 1749.07 1746.78 1744.08 1740.53 1737.32 1734.27
3784.6 3787.22 3790.97 3795.11 3800.07 3802.4 3803.44 3804.21 3804.74 3804.81 3805.5 3806.52 3805.68 3806.33 3809.95 3814.68 3820.02 3824.05 3826.45 3825.63 3824.81 3823.98 3827.55 3830.79 3833.41 3837.35 3841.99 3843.57 3845.12 3846.62 3845.79 3843.81 3842.27 3840.64 3838.75 3836.94 3835.16 3834.64 3834.73 3835.98 3835.65 3834.53 3834.07 3832.87 3830.18 3827.92 3825.86 3825.52 3824.12 3820.57 3818.17 3816.29 3811.92 3808.91 3808.6 3807.81 3806.77 3805.38 3803.66 3801.26 3800.19 3799.78 3794.55 3791.15 3791.35 3790.57 3789.28 3788.84 3787.73 3785.3 3783.4 3781.76 3780.47 3779.17 3777.83 3776.85 3776.03 3774.67 3773.61 3773.15 3771.96 3770.4 3765.98 3762.45 3760.61 3758.96 3757.4 3757.71 3757.74 3757.23 3756.95 3756.76 3756.03 3755.47 3755.21 3755.24 3755.42 3755.48 3756.01 3757.47 3758.59 3759.55 3770.05 3777.31 3778.26 3782.74 3789.08 3796.07 3802.25 3806.84 3809.46 3811.13 3812.55 3816.61 3826.01 3834.2 3841.82 3846.89 3851.22 3854.11 3853.11 3850.23 3854.28 3857.08 3857.42 3859.56 3862.62 3860.74 3862.47 3871.43 3876.95 3880.78 3878.5 3876.7 3875.84 3877.64 3880.77 3882.45 3883.69 3884.04 3886.21 3889.3 3891.52 3894.78 3900.2 3903.05 3904.65 3899.17 3897.63 3904.06 3902.6 3897.17 3920.61 3939.31 3948.48 3960.47 3974.07 3983.91 3992.67 3999.31 4003.6 4006.73 4013.05 4017.88 4019.76 4024.86 4031.62 4046.48 4058.83 4066.22 4076.96 4089.54 4083.2 4078.25 4076.05 4077.5 4080.81 4085.14 4089.03 4092.05 4094.51 4096.69 4096.79 4098.23 4102.39 4105.2 4107.34 4107.77 4108.21 4108.69 4108.97 4109.14 4108.62 4109.07 4111.46 4112.03 4111.7 4113.19 4114.95 4117.27 4119.72 4122.27 4121.81 4120.71 4118.29 4116.47 4114.94 4113.71 4112.27 4110.37 4107.09 4103.11 4100.69 4099.61 4101.18 4093.34 4080.8 4077.76 4074.09 4069.07 4066.41 4064.9 4047.32 4027.82 4004.15 3992.21 3985.96 3972.04 3957.34 3940.79 3933.32 3930.19 3949.43 3953.47 3927.12 3916.43 3913.61 3939.16 3963.49 3985.2 3995.34 3999.55 3979.52 3965.18 3961.66 3955.25 3947.38 3933.93 3916.58 3891.19 3863.29 3834.16 3843.35 3838.92 3807.46 -999 -999 -999 -999 -999 -999 -999 -999 -999 -999 -999 -999 -999 -999 -999 -999 2414.64 2410.74 2411.57 2421.92 2414.63 2398.54 2399.07 2399.97 2401.51 2407.16 2415.14 2449.15 2484.28 2521.53 -999 -999 -999 -999 -999 -999 -999 -999 -999 -999 -999 -999 -999 -999 -999 -999 -999 -999 -999 -999 1876.29 1850.87 1858.51 1869.69 1888.31 1881.12 1861.22 1884.5 1901.41 1905.08 1900.93 1892.71 1896.69 1900.37 1903.69 1901.41 1896.26 1897.12 1897.17 1895.68 1891.78 1886.63 1885.08 1883.77 1882.89 1881.97 1880.99 1883.62 1885.21 1884.7 1882.2 1878.71 1879.99 1879.95 1877.23 1875.72 1874.81 1873.93 1872.72 1870.84 1869.19 1867.65 1865.35 1862.98 1860.44 1858 1855.58 1852.7 1849.25 1844.62 1839.74 1834.68 1831.77 1828.99 1826.4 1823.29 1819.91 1816.25 1812.98 1810.4 1807.97 1805.59 1803.36 1800.37 1795.82 1789.59 1782.51 1776.78 1771.22 1765.86 1762.8 1760.84 1758.81 1756.85 1754.99 1751.95 1748.29 1746.07 1743.56 1740.4 1736.61 1732.5
3782.94 3785.16 3789.49 3794.12 3799.44 3802.09 3803.44 3803.93 3804.28 3804.34 3805.07 3806.14 3805.25 3805.84 3809.36 3814.34 3820.1 3824.42 3826.92 3825.83 3824.92 3824.09 3827.73 3830.96 3833.41 3837.93 3843.56 3846.02 3848.52 3851.21 3850.84 3848.97 3848.03 3846.87 3845.29 3843.38 3841.3 3840.88 3841.2 3843 3842.06 3839.72 3838.25 3836.41 3833.75 3831.21 3828.7 3828.18 3826.9 3824.07 3822.31 3821.09 3816.18 3812.68 3811.91 3810.89 3809.73 3808.58 3806.93 3804.25 3801.98 3799.83 3794.41 3790.88 3791.03 3790.16 3788.77 3788.4 3787.29 3784.66 3782.87 3781.48 3780.28 3779.05 3777.74 3776.86 3776.2 3774.75 3773.62 3773.12 3772.02 3770.61 3765.99 3762.27 3760.24 3758.26 3756.28 3756.55 3756.51 3755.87 3755.69 3755.72 3755.73 3755.6 3755.21 3755.15 3755.27 3754.98 3755.25 3756.6 3757.61 3758.47 3767.68 3772.24 3767.43 3769.97 3776.19 3784.09 3790.51 3794.03 3796.5 3798.46 3803.85 3810.19 3818.7 3827.13 3835.56 3842.47 3847.42 3848.5 3846.37 3842.64 3847.1 3849.79 3848.98 3851.17 3854.87 3854.15 3857.37 3868.65 3874.25 3877.01 3874.92 3873.24 3872.36 3874.02 3876.95 3878.63 3880 3880.82 3883.05 3886.03 3889.08 3893.03 3898.87 3900.22 3899.3 3889.36 3884.85 3890.94 3892.72 3892.49 3910.46 3926.58 3938.94 3952.53 3967.01 3977.61 3987.22 3994.96 3999.48 4002.42 4008.48 4013.29 4015.6 4020.99 4027.98 4041.89 4053.53 4060.66 4073.04 4088.33 4080.54 4074.46 4071.6 4071.93 4073.83 4078.23 4082.11 4084.93 4088.3 4091.99 4094.02 4097.12 4102.54 4105.52 4107.32 4107.6 4107.96 4108.48 4108.73 4108.85 4108.39 4108.91 4111.41 4112.09 4111.87 4113.39 4115.16 4117.42 4119.69 4121.97 4121.43 4120.24 4117.72 4115.81 4114.19 4112.85 4111.32 4109.36 4106.14 4102.27 4099.45 4097.82 4098.48 4089.55 4075.79 4072.91 4069.29 4064.12 4060.42 4057.39 4038.04 4017.13 3992.58 3980.02 3973.24 3962.27 3948.74 3930.01 3924.63 3925.81 3945.7 3950.32 3924.42 3906.39 3892.05 3920.94 3948.36 3972.87 3987.94 3998.41 3976.76 3960.75 3955.23 3948.75 3941.75 3902.38 3876.22 3873.99 3852.54 3821.95 3831.89 -999 -999 -999 -999 -999 -999 -999 -999 -999 -999 -999 -999 -999 -999 -999 -999 -999 2403.65 2394.44 2389.33 2390.32 2403.65 2400.39 2388.94 2392.24 2394.75 2395.74 2397.35 2399.31 2429.6 2458.47 2483.74 -999 -999 -999 -999 -999 -999 -999 -999 -999 -999 -999 -999 -999 -999 -999 -999 1928.41 1918.54 1906.57 1890.31 1869.95 1847.79 1854.34 1863.66 1878.67 1872.45 1855.77 1875.5 1889.86 1893.02 1892.03 1888.92 1889.74 1892.02 1897.33 1896.88 1893.55 1892.41 1891.22 1889.89 1886.53 1882.13 1880.73 1879.62 1879.05 1878.3 1877.44 1880.15 1881.82 1881.38 1878.98 1875.6 1876.96 1877 1874.36 1872.94 1872.1 1871.16 1869.91 1868 1866.42 1864.99 1862.7 1860.36 1857.86 1855.47 1853.11 1850.35 1847.01 1842.45 1838.13 1833.91 1831.05 1828.31 1825.73 1822.22 1818.21 1815.17 1812.12 1809.01 1806.42 1804.04 1801.43 1798.25 1793.86 1787.74 1780.77 1774.49 1768.63 1763.41 1760.39 1758.44 1757.02 1755.46 1753.62 1750.89 1747.68 1745.53 1743.01 1739.69 1735.78 1731.56
3781.76 3783.83 3788.2 3792.91 3798.36 3801.47 3803.44 3803.36 3803.33 3803.4 3804.2 3805.38 3804.39 3804.84 3808.18 3813.36 3819.54 3824.01 3826.72 3825.95 3825.14 3824.3 3827.46 3830.47 3833.22 3838.81 3845.91 3848.91 3852.75 3858.27 3859.21 3857.84 3858.28 3858.21 3857.11 3855.19 3852.84 3852.41 3852.06 3851.95 3849.36 3845.51 3842.55 3839.79 3837.32 3834.78 3832.2 3830.82 3829.25 3827.23 3826.04 3825.24 3821.99 3819.3 3817.73 3816.61 3815.71 3815.07 3813.56 3810.32 3805.54 3799.93 3794.32 3790.69 3790.87 3789.65 3787.7 3788.02 3787.2 3784.13 3782.39 3781.32 3779.99 3778.75 3777.66 3776.86 3776.2 3774.81 3773.7 3773.13 3772.04 3770.7 3766.03 3762.15 3759.78 3757.92 3756.31 3756.56 3756.51 3755.87 3755.19 3754.47 3755.17 3755.51 3755.18 3755.15 3755.27 3754.64 3754.52 3755.43 3756.82 3758.47 3765.9 3768.4 3761.09 3761.87 3766.73 3775.09 3781.38 3783.66 3785.82 3787.96 3798.98 3809.29 3818.47 3824.4 3828.69 3837.32 3842.9 3842.51 3841.4 3839.99 3844.73 3847.13 3844.9 3846.49 3850.02 3851.28 3855.56 3866.08 3870.14 3870.97 3870.84 3870.46 3869.62 3870.1 3871.22 3872.82 3874.8 3877.51 3879.7 3881.62 3886.39 3891.26 3896.47 3895.6 3891.63 3877.55 3869.91 3874.76 3882.72 3892.49 3897.65 3909.52 3934.53 3952.53 3967.01 3977.61 3987.22 3994.96 3998.52 3999.99 4003.82 4007.4 4010.44 4015.93 4022.7 4033.49 4042.87 4049.46 4065.72 4087.24 4078.74 4072.47 4070.46 4068.92 4067.54 4070 4072.11 4073.54 4077.23 4082.12 4088.73 4095.35 4102.22 4105.61 4107.27 4107.12 4107.18 4107.66 4107.85 4107.89 4107.66 4108.31 4110.75 4111.46 4111.31 4112.83 4114.55 4116.68 4118.7 4120.68 4120.08 4118.82 4116.22 4114.22 4112.51 4111.06 4109.43 4107.4 4105.03 4102.48 4099.61 4096.93 4094.62 4084.53 4070.55 4067.38 4063.5 4058.16 4052.5 4046.6 4026.67 4005.06 3979.58 3966.31 3958.94 3954.35 3944.77 3925.31 3919.72 3920.95 3941.53 3947.38 3923.68 3903.33 3884.41 3914.5 3942.31 3965.57 3982.35 3996.1 3973.26 3955.18 3945.93 3939.88 3935.44 3846.27 3804.24 3847.15 3840.56 3808.64 3819.25 -999 -999 -999 -999 -999 -999 -999 -999 -999 -999 -999 -999 -999 -999 -999 -999 -999 2380.5 2374.67 2373.64 2376.11 2385.89 2387.39 2384.92 2388.09 2390.47 2391.27 2392.96 2395.13 2416.65 2435.35 2448.32 -999 -999 -999 -999 -999 -999 -999 -999 -999 -999 -999 -999 -999 -999 -999 -999 1906.69 1897.97 1889.27 1880.23 1865.41 1847.79 1853.06 1859.17 1867.22 1864.17 1855.77 1871.11 1883.98 1891.51 1888.98 1881.3 1886.7 1890.96 1893.2 1893.75 1893.55 1892.41 1891.22 1889.89 1886.53 1882.13 1880.73 1879.62 1879.05 1878.3 1877.44 1878.73 1879.48 1879.1 1877.62 1875.6 1875.73 1874.97 1872.38 1870.97 1870.14 1869.21 1867.96 1866.06 1864.51 1863.11 1860.88 1858.57 1856.1 1853.73 1851.39 1848.65 1845.35 1840.86 1836.57 1832.34 1829.59 1826.92 1824.36 1820.03 1814.78 1812.97 1810.38 1806.23 1803.29 1800.93 1798.49 1795.21 1790.2 1784.98 1779.63 1772.82 1766.47 1760.86 1757.7 1755.73 1755.4 1754.58 1752.77 1750.2 1747.23 1745.14 1742.41 1738.38 1734.79 1731.42
3780.59 3782.51 3786.93 3791.71 3797.29 3800.85 3803.44 3802.8 3802.4 3802.47 3803.34 3804.63 3803.54 3803.86 3807 3812.39 3818.98 3823.59 3826.52 3826.08 3825.37 3824.52 3827.19 3829.98 3833.02 3839.68 3848.24 3851.78 3856.9 3865.32 3867.54 3866.67 3868.48 3869.49 3868.89 3866.95 3864.32 3863.89 3862.91 3860.83 3856.6 3851.26 3846.83 3843.14 3840.86 3838.33 3835.66 3833.44 3831.57 3830.38 3829.73 3829.35 3827.74 3825.88 3823.49 3822.29 3821.66 3821.51 3820.15 3816.33 3809.06 3800.03 3794.24 3790.5 3790.71 3789.13 3786.63 3787.63 3787.12 3783.6 3781.93 3781.15 3779.69 3778.44 3777.58 3776.86 3776.2 3774.88 3773.79 3773.13 3772.06 3770.78 3766.06 3762.04 3759.31 3757.59 3756.34 3756.57 3756.51 3755.87 3754.69 3753.23 3754.6 3755.42 3755.16 3755.15 3755.27 3754.3 3753.82 3754.27 3756.04 3758.47 3764.15 3764.65 3754.79 3753.88 3757.41 3766.21 3772.41 3773.44 3775.31 3777.63 3794.13 3808.39 3818.25 3821.68 3821.9 3832.22 3838.46 3836.57 3836.51 3837.37 3842.4 3844.52 3840.85 3841.86 3845.22 3848.43 3853.77 3863.52 3866.06 3865.01 3866.79 3867.71 3866.92 3866.21 3865.55 3867.09 3869.63 3874.26 3876.38 3877.26 3883.71 3889.51 3894.1 3891.01 3884.06 3865.95 3855.24 3858.87 3872.92 3892.49 3885.12 3892.59 3930.34 3952.53 3967.01 3977.61 3987.22 3994.96 3997.55 3997.58 3999.23 4001.58 4005.35 4010.93 4017.49 4025.22 4032.37 4038.44 4058.54 4086.16 4076.95 4070.49 4069.34 4065.91 4061.32 4061.89 4062.27 4062.3 4066.32 4072.4 4083.47 4093.59 4101.92 4105.7 4107.23 4106.65 4106.41 4106.85 4106.98 4106.94 4106.93 4107.71 4110.09 4110.83 4110.76 4112.28 4113.95 4115.93 4117.71 4119.41 4118.74 4117.41 4114.73 4112.65 4110.85 4109.3 4107.57 4105.46 4103.93 4102.68 4099.78 4096.09 4090.77 4079.56 4065.38 4061.91 4057.79 4052.27 4044.67 4035.98 4015.48 3993.19 3966.77 3952.82 3944.87 3946.5 3940.85 3920.65 3914.86 3916.15 3937.41 3944.46 3922.98 3900.27 3876.87 3908.13 3936.35 3958.35 3976.85 3993.82 3969.81 3949.73 3936.72 3931.15 -999 3792.57 3734.99 3821.52 3828.76 3795.56 3806.8 -999 -999 -999 -999 -999 -999 -999 -999 -999 -999 -999 -999 -999 -999 2397.93 2360.14 2359.85 2358.03 2355.42 2358.29 2362.26 2368.52 2374.71 2380.95 2384.01 2386.24 2386.86 2388.63 2391.01 2404.01 2413.04 2414.08 -999 -999 -999 -999 -999 -999 -999 -999 -999 -999 -999 -999 -999 1906.76 1889.19 1884.32 1885.66 1878.02 1872.36 1870.44 1860.97 1847.79 1851.79 1854.82 1855.93 1856.09 1855.77 1866.82 1878.13 1890.07 1885.94 1873.82 1883.67 1889.96 1889.09 1890.69 1893.55 1892.41 1891.22 1889.89 1886.53 1882.13 1880.73 1879.62 1879.05 1878.3 1877.44 1877.34 1877.17 1876.85 1876.29 1875.6 1874.52 1872.97 1870.42 1869.03 1868.21 1867.27 1866.03 1864.15 1862.62 1861.26 1859.07 1856.81 1854.36 1852.01 1849.69 1846.97 1843.7 1839.3 1835.03 1830.79 1828.14 1825.55 1823.01 1817.87 1811.4 1810.79 1808.66 1803.47 1800.21 1797.86 1795.59 1792.21 1786.6 1782.25 1778.51 1771.18 1764.35 1758.34 1755.04 1753.06 1753.8 1753.71 1751.93 1749.52 1746.78 1744.75 1741.83 1737.08 1733.82 1731.28
3779.16 3781.83 3785.8 3789.96 3794.6 3798.07 3800.97 3800.43 3799.94 3799.5 3800.72 3802.76 3801.74 3802.38 3806.4 3812.93 3820.8 3825.23 3828.19 3828.3 3828.37 3828.4 3831.08 3833.51 3835.49 3841.36 3849.25 3852.18 3856.9 3865.32 3867.54 3866.67 3868.48 3869.49 3868.89 3866.95 3864.32 3863.89 3862.91 3860.83 3856.6 3851.26 3847.01 3843.48 3841.28 3838.19 3834.63 3832.62 3831.01 3830.17 3829.7 3829.4 3827.7 3825.8 3823.48 3822.29 3821.66 3820.68 3819.22 3816.8 3809.54 3799.86 3794.05 3790.32 3790.67 3788.98 3786.27 3787.55 3787.22 3783.63 3781.7 3780.59 3779.33 3778.2 3777.31 3776.49 3775.7 3774.38 3773.37 3772.96 3772.01 3770.78 3766.49 3762.82 3760.32 3758.57 3757.19 3756.99 3756.65 3756.05 3755 3753.71 3754.73 3755.24 3754.77 3754.65 3754.7 3754.07 3753.82 3754.27 3755.33 3756.73 3763.45 3764.65 3754.79 3753.88 3757.41 3766.21 3772.41 3773.44 3775.31 3777.63 3792.44 3805.69 3815.98 3820.4 3821.9 3828.63 3832.57 3831.09 3832.11 3834.36 3839.32 3842 3840.24 3841.86 3845.22 3847.74 3852.43 3861.62 3864.81 3865.01 3866.79 3867.71 3866.92 3865.17 3862.95 3864.27 3866.25 3869.55 3872.31 3874.77 3877.79 3881.6 3887.24 3882.79 3873.35 3859.99 3851.99 3854.24 3866.57 3884.2 3878.68 3883.04 3907.02 3926.35 3943.36 3952.52 3963.57 3978.87 3986.16 3989.53 3993.96 3998.84 4004.68 4010.93 4017.49 4025.22 4032.37 4038.44 4053.19 4072.7 4068.24 4065.36 4065.46 4063.83 4061.32 4061.48 4061.54 4061.39 4063.74 4067.41 4079.03 4089.83 4099.14 4103.82 4106.23 4105.56 4105.28 4105.76 4105.93 4105.95 4106 4106.74 4108.89 4109.55 4109.47 4110.85 4112.32 4113.97 4115.7 4117.47 4116.73 4115.32 4112.53 4110.37 4108.49 4106.81 4104.96 4102.74 4101.09 4099.7 4096.75 4092.45 4085.35 4072.55 4056.85 4054.52 4050.19 4041.7 4032.75 4023.47 4002.24 3979.08 3951.5 3941.75 3940.57 3931.14 3921.41 3911.45 3898.12 3883.4 3902.26 3912.29 3904.98 3888.98 3868.79 3901.01 3930.2 3953.22 3953.83 3943.61 3942.87 3939.18 3928.92 3890.33 3839.1 3749.2 3704.25 3739.45 3755.38 3760.44 3774.11 -999 -999 -999 -999 -999 -999 -999 -999 -999 -999 -999 -999 -999 2426.21 2383.76 2355.96 2354.02 2353.17 2352.8 2353.43 2356.51 2364.75 2371.34 2377.21 2380.33 2382.54 2382.96 2384.74 2387.23 2395.44 2398.93 2392.98 -999 -999 -999 -999 -999 -999 -999 -999 -999 -999 -999 -999 -999 1887.53 1878.68 1874.82 1873.53 1866.64 1861.85 1861.12 1855.66 1847.79 1848.26 1846.84 1841.59 1844.72 1851.91 1857.8 1866.26 1880.33 1876.27 1863.24 1875.4 1884.58 1887.78 1888.92 1889.13 1888.13 1887.07 1885.88 1882.12 1877.07 1877.61 1877.4 1875.61 1874.62 1874 1875.09 1875.75 1875.49 1874.45 1873.02 1872.83 1871.69 1868.61 1867.49 1867.31 1865.76 1864.12 1862.29 1860.83 1859.53 1857.94 1856.07 1853.59 1851.27 1849.01 1845.82 1842.24 1837.78 1832.75 1827.42 1824.44 1821.62 1819.05 1814.35 1808.55 1806.41 1803.83 1800.42 1797.46 1794.73 1792.18 1788.89 1784.09 1780.07 1776.41 1769.38 1762.68 1756.45 1753.13 1751.23 1751.72 1751.79 1751.09 1748.72 1745.53 1743.27 1740.44 1736.44 1733.46 1730.98
3777.72 3781.15 3784.65 3788.19 3791.9 3795.26 3798.48 3798.04 3797.44 3796.52 3798.07 3800.87 3799.92 3800.9 3805.78 3813.47 3822.65 3826.87 3829.89 3830.54 3831.39 3832.33 3835.01 3837.08 3837.99 3843.05 3850.27 3852.59 3856.9 3865.32 3867.54 3866.67 3868.48 3869.49 3868.89 3866.95 3864.32 3863.89 3862.91 3860.83 3856.6 3851.26 3847.2 3843.82 3841.71 3838.05 3833.59 3831.79 3830.45 3829.97 3829.66 3829.45 3827.66 3825.72 3823.45 3822.29 3821.66 3819.84 3818.3 3817.25 3810.03 3799.69 3793.85 3790.15 3790.63 3788.83 3785.89 3787.48 3787.32 3783.65 3781.47 3780.02 3778.96 3777.96 3777.03 3776.11 3775.19 3773.87 3772.95 3772.79 3771.96 3770.78 3766.92 3763.62 3761.33 3759.57 3758.06 3757.4 3756.78 3756.24 3755.32 3754.19 3754.85 3755.06 3754.38 3754.14 3754.12 3753.84 3753.82 3754.27 3754.63 3754.97 3762.74 3764.65 3754.79 3753.88 3757.41 3766.21 3772.41 3773.44 3775.31 3777.63 3790.73 3802.98 3813.68 3819.11 3821.9 3824.98 3826.64 3825.58 3827.66 3831.33 3836.21 3839.5 3839.59 3841.86 3845.22 3847.03 3851.07 3859.7 3863.54 3865.01 3866.79 3867.71 3866.92 3864.12 3860.33 3861.44 3862.83 3864.82 3868.19 3872.27 3871.8 3873.66 3880.32 3874.55 3862.59 3854.02 3848.7 3849.59 3860.19 3875.87 3872.21 3873.26 3883.93 3900.26 3919.77 3927.49 3940.06 3962.65 3974.7 3981.43 3988.67 3996.11 4003.98 4010.93 4017.49 4025.22 4032.37 4038.44 4047.85 4059.19 4059.51 4060.2 4061.53 4061.72 4061.32 4061.07 4060.8 4060.48 4061.16 4062.38 4074.55 4086.05 4096.32 4101.93 4105.23 4104.47 4104.13 4104.65 4104.87 4104.96 4105.06 4105.76 4107.69 4108.27 4108.18 4109.41 4110.67 4111.99 4113.66 4115.52 4114.71 4113.21 4110.32 4108.06 4106.1 4104.29 4102.32 4100 4098.22 4096.7 4093.69 4088.76 4079.93 4065.5 4048.28 4047.08 4042.5 4031.13 4020.79 4010.92 3988.95 3964.91 3936.22 3930.6 3936.25 3915.67 3902.1 3902.08 3881.46 3850.88 3867.38 3880.51 3886.79 3877.63 3860.66 3893.84 3924.03 3948.04 3931.02 3894.17 3916.2 3928.62 3921.05 3850.28 3752.19 3706.66 3673.1 3660.68 3683.85 3725.64 3741.67 -999 -999 -999 -999 -999 -999 -999 -999 -999 -999 -999 -999 -999 2395.71 2369.71 2351.74 2348.19 2348.28 2350.17 2348.52 2350.77 2360.93 2367.95 2373.44 2376.63 2378.82 2379.04 2380.83 2383.43 2386.81 2384.77 2372.12 -999 -999 -999 -999 -999 -999 -999 -999 -999 -999 -999 -999 -999 1868.61 1868.08 1865.34 1861.44 1855.28 1851.37 1851.78 1850.3 1847.79 1844.67 1838.77 1827.41 1833.33 1848.03 1848.75 1854.46 1870.57 1866.62 1852.67 1867.13 1879.24 1886.4 1887.15 1884.68 1883.82 1882.91 1881.85 1877.69 1871.98 1874.47 1875.14 1872.16 1870.92 1870.54 1872.83 1874.31 1874.12 1872.6 1870.41 1871.12 1870.4 1866.8 1865.93 1866.41 1864.23 1862.19 1860.42 1859.02 1857.79 1856.79 1855.31 1852.82 1850.53 1848.32 1844.67 1840.76 1836.26 1830.47 1824.02 1820.71 1817.67 1815.07 1810.8 1805.68 1801.99 1799 1797.33 1794.71 1791.58 1788.75 1785.56 1781.56 1777.88 1774.3 1767.57 1761 1754.55 1751.21 1749.39 1749.61 1749.88 1750.23 1747.92 1744.28 1741.78 1739.05 1735.77 1733.1 1730.69
3776.43 3779.94 3782.78 3785.55 3788.22 3791.24 3794.44 3794.43 3794.12 3793.24 3794.69 3797.31 3796.69 3797.85 3802.61 3809.92 3818.57 3822.33 3825.12 3826.01 3827.19 3828.54 3831.42 3834.51 3838.14 3843.41 3849.61 3851.77 3856.07 3864.76 3868.47 3869.77 3871.36 3872.29 3871.95 3869.76 3866.61 3866.54 3865.94 3864.32 3860.12 3854.61 3849.16 3844.72 3842.1 3837.68 3832.29 3831.08 3830.11 3829.61 3829.46 3829.47 3827.64 3825.66 3823.37 3822.12 3821.38 3819.31 3817.73 3817.09 3809.98 3799.61 3793.73 3790.02 3790.56 3788.78 3785.84 3787.62 3787.5 3783.56 3781.2 3779.62 3778.67 3777.72 3776.77 3775.85 3774.93 3773.62 3772.74 3772.71 3771.89 3770.67 3767.08 3764.02 3761.92 3760.15 3758.51 3757.65 3756.91 3756.37 3755.49 3754.44 3754.61 3754.56 3754.08 3753.89 3753.83 3753.73 3753.82 3754.27 3754.29 3754.1 3761.27 3763.09 3754.18 3753.52 3756.98 3765.52 3771.54 3772.55 3774.12 3775.97 3787.8 3799.3 3810.27 3816.58 3820.63 3821.96 3822.68 3822.2 3824.6 3828.45 3833.39 3837.23 3838.94 3841.8 3845.26 3846.7 3849.99 3857.03 3861.1 3863.73 3865.52 3866.44 3865.62 3862.36 3857.86 3858.79 3859.63 3860.24 3863.05 3866.96 3865.28 3865.96 3871.35 3865.84 3854.91 3849.86 3846.67 3847.19 3855 3866.51 3865.52 3866.15 3870.15 3882.18 3898.32 3905.48 3918.19 3942.38 3958.71 3971.33 3979.2 3986.67 3993.35 4000.93 4009.07 4016.73 4024.21 4031.52 4040.08 4049.45 4052.46 4055.5 4058.7 4060.23 4060.94 4060.03 4059.3 4058.88 4059.25 4060.03 4071.94 4083.42 4094.16 4100.01 4103.45 4102.99 4102.87 4103.41 4103.62 4103.68 4103.9 4104.63 4106.42 4106.9 4106.72 4107.77 4108.86 4110.03 4111.67 4113.56 4112.67 4111.1 4108.13 4105.81 4103.78 4101.84 4099.53 4096.41 4094.3 4092.66 4088.66 4082.74 4072.81 4058.08 4040.93 4039.08 4033 4018.29 4006.41 3995.81 3972.87 3949.52 3924.75 3918.84 3922.12 3901.28 3889.16 3894.17 3869.5 -999 -999 -999 -999 -999 -999 -999 -999 -999 -999 -999 -999 -999 -999 -999 -999 -999 -999 -999 -999 -999 -999 -999 -999 -999 -999 -999 -999 -999 -999 -999 -999 -999 -999 2378.22 2371.94 2358.59 2348.37 2344.23 2344.15 2346.08 2345 2347.32 2356.56 2363.76 2370.01 2373.24 2375.35 2375.22 2376.71 2379.01 2378.69 2371.54 2350.63 -999 -999 -999 -999 -999 -999 -999 -999 -999 -999 -999 1868.44 1861.71 1858.01 1860.19 1857.82 1853.17 1847.51 1843.96 1844.48 1845.12 1845.83 1839.86 1831.37 1817.68 1823.99 1840.51 1841.22 1847.08 1863.63 1859.83 1845.91 1858.64 1869.95 1878.24 1879.65 1877.65 1876.14 1874.89 1874.12 1870.64 1865.81 1868.73 1869.73 1866.88 1866.7 1867.91 1870.37 1871.98 1871.9 1870.09 1867.41 1867.45 1866.35 1862.91 1861.8 1861.82 1860.17 1858.33 1856.08 1854.93 1854.32 1853.39 1851.94 1849.44 1847.2 1845.06 1841.5 1837.67 1833.24 1827.04 1819.95 1816.8 1813.98 1811.79 1808.15 1803.8 1798.72 1795.16 1794.48 1792.02 1788.63 1785.88 1782.89 1779.36 1775.75 1772.07 1765.66 1759.15 1752.3 1748.87 1747.1 1747.44 1747.91 1748.64 1746.69 1743.41 1740.75 1738.04 1735.15 1732.64 1730.3
3775.29 3778.18 3780.15 3781.97 3783.52 3785.93 3788.79 3789.52 3789.9 3789.6 3790.51 3792 3791.99 3793.19 3796.85 3802.24 3808.52 3811.56 3813.85 3814.65 3815.74 3816.98 3820.3 3825.85 3835.85 3842.43 3847.24 3849.7 3854.38 3863.61 3870.38 3876.04 3877.18 3877.99 3878.13 3875.42 3871.24 3871.9 3872.1 3871.39 3867.26 3861.39 3852.95 3846.17 3842.47 3837.05 3830.72 3830.45 3829.98 3829.11 3829.08 3829.47 3827.64 3825.62 3823.21 3821.78 3820.82 3819.09 3817.53 3816.31 3809.39 3799.61 3793.67 3789.93 3790.47 3788.83 3786.11 3787.97 3787.74 3783.34 3780.89 3779.4 3778.43 3777.47 3776.5 3775.68 3774.93 3773.62 3772.74 3772.71 3771.8 3770.44 3766.97 3764.03 3762.1 3760.31 3758.57 3757.76 3757.02 3756.43 3755.53 3754.47 3753.99 3753.73 3753.87 3753.89 3753.83 3753.73 3753.82 3754.27 3754.29 3754.1 3759.01 3759.97 3752.91 3752.79 3756.12 3764.13 3769.77 3770.74 3771.69 3772.61 3783.62 3794.6 3805.66 3812.8 3818.05 3819.53 3820.6 3820.87 3822.85 3825.67 3830.79 3835.19 3838.23 3841.67 3845.34 3846.73 3849.11 3853.58 3857.47 3861.15 3862.96 3863.87 3863.01 3859.83 3855.48 3856.29 3856.56 3855.74 3856.78 3858.75 3858.14 3858.32 3860.21 3856.52 3850.13 3847.35 3845.86 3846.98 3850.81 3855.95 3858.43 3861.37 3865.41 3871.49 3878.55 3885.99 3897.54 3917.74 3938.11 3959.04 3965.43 3970.43 3972.77 3980.91 3992.18 3999.67 4007.88 4017.6 4029.72 4043.23 4046.89 4051.21 4056.87 4059.34 4060.18 4058.36 4057.02 4056.57 4057.97 4060.32 4071.15 4081.89 4092.59 4098.03 4100.87 4101.12 4101.45 4102 4102.16 4102.11 4102.5 4103.34 4105.07 4105.42 4105.08 4105.91 4106.85 4108.04 4109.68 4111.56 4110.58 4108.94 4105.91 4103.55 4101.49 4099.42 4096.52 4091.93 4089.25 4087.5 4081.58 4074.25 4063.93 4050.16 4034.65 4030.37 4021.42 4003.06 3989.37 3977.91 3953.8 3932.74 3916.7 3906.22 3898.12 3887.66 3882.35 3887.42 3861.74 -999 -999 -999 -999 -999 -999 -999 -999 -999 -999 -999 -999 -999 -999 -999 -999 -999 -999 -999 -999 -999 -999 -999 -999 -999 -999 -999 -999 -999 -999 -999 -999 -999 -999 2359.39 2354.05 2349.85 2345.77 2342.07 2340.71 2340.47 2342.76 2346.05 2351.59 2358.73 2366.86 2370.09 2372.04 2371.43 2372.29 2373.9 2370.98 2358.75 2328.34 -999 -999 -999 -999 -999 -999 -999 -999 -999 -999 -999 1867.3 1860.19 1855.3 1854.71 1852.08 1848.46 1843.08 1839.4 1839.03 1840.07 1841.87 1833.81 1824.42 1812.11 1816.49 1829.28 1835.04 1843.87 1859.28 1855.73 1842.76 1849.78 1856.68 1863.26 1866.42 1867.96 1865.01 1862.96 1862.63 1860.88 1858.44 1860.32 1861.11 1859.68 1861.92 1866.06 1867.64 1868.72 1868.78 1866.87 1863.94 1861.77 1859.5 1856.88 1855.03 1853.5 1853.54 1852.46 1849.22 1848.51 1849.08 1847.68 1845.93 1843.42 1841.23 1839.19 1836.28 1832.94 1828.67 1822.42 1815.14 1812.61 1810.49 1809.12 1806.35 1802.87 1796.54 1792.23 1791.79 1789.33 1785.84 1783.51 1780.84 1777.43 1773.66 1769.68 1763.59 1757.1 1749.66 1746.06 1744.34 1745.16 1745.85 1746.29 1745.02 1742.9 1740.17 1737.41 1734.53 1732.08 1729.81
3774.15 3776.44 3777.56 3778.44 3778.86 3780.68 3783.21 3784.67 3785.73 3786.02 3786.37 3786.75 3787.35 3788.59 3791.16 3794.64 3798.62 3800.96 3802.75 3803.47 3804.46 3805.6 3809.34 3817.23 3833.68 3841.44 3844.89 3847.66 3852.71 3862.47 3872.3 3882.27 3882.96 3883.64 3884.29 3881.05 3875.84 3877.22 3878.2 3878.42 3874.35 3868.12 3856.73 3847.63 3842.83 3836.42 3829.16 3829.83 3829.86 3828.61 3828.7 3829.47 3827.64 3825.58 3823.05 3821.43 3820.26 3818.87 3817.34 3815.53 3808.81 3799.61 3793.62 3789.84 3790.37 3788.89 3786.38 3788.32 3787.99 3783.13 3780.58 3779.18 3778.2 3777.22 3776.24 3775.53 3774.93 3773.62 3772.74 3772.71 3771.71 3770.21 3766.85 3764.05 3762.28 3760.47 3758.63 3757.86 3757.14 3756.49 3755.56 3754.49 3753.38 3752.9 3753.67 3753.89 3753.83 3753.73 3753.82 3754.27 3754.29 3754.1 3756.8 3756.86 3751.67 3752.07 3755.27 3762.75 3768.03 3768.96 3769.28 3769.29 3779.49 3789.96 3801.11 3809.07 3815.51 3817.12 3818.53 3819.56 3821.11 3822.92 3828.21 3833.17 3837.54 3841.55 3845.42 3846.76 3848.27 3850.15 3853.88 3858.6 3860.42 3861.33 3860.43 3857.33 3853.13 3853.82 3853.54 3851.28 3850.59 3850.67 3851.09 3850.83 3849.2 3847.36 3845.4 3844.85 3845.05 3846.79 3846.64 3845.55 3851.41 3856.64 3860.72 3860.91 3859.16 3866.87 3877.35 3893.59 3917.96 3946.95 3951.89 3954.52 3952.54 3961.3 3975.6 3982.93 3991.8 4003.94 4019.53 4037.1 4041.38 4046.93 4055.1 4058.45 4059.43 4056.71 4054.76 4054.29 4056.71 4060.61 4070.36 4080.37 4091.05 4096.08 4098.32 4099.25 4100.06 4100.61 4100.7 4100.55 4101.12 4102.05 4103.73 4103.95 4103.46 4104.06 4104.86 4106.07 4107.71 4109.58 4108.52 4106.8 4103.71 4101.31 4099.23 4097.03 4093.56 4087.48 4084.26 4082.42 4074.6 4065.88 4055.16 4042.36 4028.44 4021.8 4010.06 3988.05 3972.63 3960.34 3935.1 3916.14 3908.87 3893.72 3874.64 -999 -999 -999 -999 -999 -999 -999 -999 -999 -999 -999 -999 -999 -999 -999 -999 -999 -999 -999 -999 -999 -999 -999 -999 2402.8 2398.45 2393.63 2387.78 2381.9 2375.98 2371.67 2367.24 2362.48 2374.37 2395 2387.08 2374.22 2351.44 2341.04 2336.6 2341.2 2343.18 2339.94 2337.3 2334.94 2340.54 2344.85 2346.64 2353.78 2363.74 2366.98 2368.78 2367.69 2367.94 2368.85 2363.41 2346.34 2306.56 -999 -999 -999 -999 -999 -999 -999 -999 -999 -999 1887.13 1866.18 1858.7 1852.66 1849.28 1846.43 1843.81 1838.71 1834.93 1833.65 1835.11 1837.98 1827.87 1817.58 1806.65 1809.1 1818.29 1828.93 1840.73 1854.99 1851.69 1839.64 1841.13 1843.74 1848.65 1853.53 1858.46 1854.13 1851.3 1851.4 1851.34 1851.21 1852.07 1852.64 1852.62 1857.23 1864.23 1864.95 1865.5 1865.71 1863.68 1860.52 1856.2 1852.75 1850.97 1848.37 1845.34 1847.01 1846.71 1842.46 1842.2 1843.93 1842.07 1840.01 1837.49 1835.37 1833.42 1831.13 1828.26 1824.18 1817.85 1810.4 1808.48 1807.04 1806.51 1804.58 1801.95 1794.39 1789.34 1789.13 1786.67 1783.08 1781.16 1778.8 1775.52 1771.6 1767.32 1761.55 1755.08 1747.04 1743.29 1741.61 1742.9 1743.81 1743.97 1743.38 1742.4 1739.59 1736.79 1733.92 1731.52 1729.33
