3369.93 3366.58 3362.16 3358.08 3355.31 3355.11 3353.25 3350.54 3352.69 3354.38 3355.16 3358.34 3362.8 3364.95 3366.52 3366.94 3366.35 3365.24 3366.28 3367.51 3369.12 3367.87 3365.2 3364.88 3365.11 3366.46 3368.87 3371.82 3372.33 3373.81 3377.24 3380.28 3383.14 3383.77 3387.02 3395.69 3393.48 3385.81 3385.4 3385.7 3387.49 3391.33 3396.26 3399.96 3404.02 3408.9 3413.44 3417.87 3422.18 3426.98 3432.81 3439.81 3447.5 3461.82 3475.31 3487.17 3494.99 3500.82 3502.28 3502.53 3500.48 3514.71 3537.42 3540.55 3544.45 3549.93 3551.98 3552.34 3552.79 3553.55 3555.01 3558.92 3564.19 3575.96 3588.27 3601.78 3604.82 3602.65 3603.05 3603.65 3604.59 3609.68 3616.92 3621.13 3623.12 3620.68 3618.73 3617.01 3609.15 3603.69 3602.73 3600.34 3597.19 3605.81 3611.32 3610.66 3617.36 3627.85 3658.09 3687.96 3717.09 3742.28 3765.85 3787.2 3803.78 3810.72 3826.01 3845.83 3816.91 3799.43 3803.8 3806.78 3809.09 3810.58 3816.58 3831.71 3836.48 3836.02 3836.73 3839.33 3845.49 3846.39 3844.65 3831.1 3819.38 3811 3805.06 3800.48 3805.51 3803.17 3786.12 3770.31 3755.03 3748.23 3742.95 3740.65 3735.21 3728.19 3736.08 3741.21 3740.89 3744.37 3749.8 3754.28 3761.6 3774.66 3784.43 3792.61 3799.47 3798.45 3781.9 -999 -999 -999 -999 -999 -999 -999 -999 -999 -999 -999 -999 -999 -999 -999 -999 -999 -999 -999 -999 -999 -999 -999 2033.3 2024.81 2018.48 2013.19 2012.31 2013.64 2019.38 2023.86 2027.72 2039.57 2048.92 2053.18 2056.86 2060.32 2064.42 2066.21 2063.5 2066.47 2072.37 2081.48 2091.52 2103.53 2112.68 2120.49 2131.39 2140.61 2146.44 2151.72 2156.78 2162.36 2168.27 2174.93 2179.45 2182.94 2183.67 2185.56 2189.87 2191.8 2192.55 2196.47 2199.2 2199.58 2199.87 2200.1 2196.36 2195.16 2199.01 2200.56 2200.98 2203.32 2202.7 2196.14 2191.8 2188.52 2186.13 2183.3 2179.56 2176.85 2174.64 2170 2166.29 2164.38 2163.28 2162.56 2160.1 2158.04 2156.71 2152.95 2147.97 2143.97 2141 2139.93 2134.48 2126.86 2125.64 2123.56 2119.59 2109.07 2095.31 2088.65 2080.5 2069.21 2058.17 2047.25 2048.12 2049.17 2050.6 2051.47 2052.07 2034.76 2017.93 2001.49 1987.28 1974.13 1966.68 1959.98 1954.55 1947.12 1938.68 1923.97 1912.33 1906.29 1899.22 1891.6 1886.3 1880.36 1872.98 1866.1 1859.43 1853.26 1847.28 1841.51 1836.38 1831.54 1824.51 1818.2 1813.09 1809.41 1806.4 1799.59 1793.07 1786.97 1781.86 1777.2 1772.18 1767.61 1763.77 1758.95 1753.6 1749.35 1745.12 1740.79 1738.61 1737.49 1733.1 1728.56 1723.62 1718.35 1712.86 1707.78 1703.27 1699.79 1697.99 1697.01 1695.32 1693.49 1691.36 1690.48 1690.21 1689.3 1688.56 1688.09 1687.32 1686.41 1684.65 1682.93 1681.24 1678.73 1675.78 1676.16 1675.47 1672.62 1670.53 1668.8 1666.53 1664.18 1661.63 1658.76 1655.7 1652.82 1649.99 1647.2 1643.89 1640.28 1633.63 1627.39 1621.81 1618.46 1616.19 1613.55 1611.11 1609 1606.01 1602.59 1603.02 1601.89 1597.57 1593.06 1588.44 1586 1584.02 1582.92 1582.78 1583.11 1580.95 1580.55 1583.65 1587.32 1591.32 1591.99 1591.73 1589.6 1587.77 1586.03 1580.56 1576.39 1574.72 1573.85 1573.37 1571.05 1571.45 1577.31 1578.33
3369.44 3364.39 3356.69 3353.31 3350.98 3350.69 3348.62 3345.65 3347.55 3349.01 3349.61 3354.23 3360.96 3363.08 3364.67 3365.22 3364.58 3363.35 3362.68 3362.69 3364.01 3363.31 3361.63 3362.36 3363.29 3364.66 3366.02 3367.36 3367.55 3368.54 3371.17 3373.46 3375.6 3380.76 3385.29 3388.89 3385.63 3379.01 3379.62 3381.63 3386.44 3391.33 3396.26 3399.96 3403.63 3407.35 3412.26 3417.87 3420.95 3424.69 3429.8 3436.28 3443.53 3456.21 3467.18 3474.9 3481.15 3486.8 3489.36 3492.05 3494.92 3506.79 3523.25 3523.51 3525.89 3532.46 3535.56 3536.93 3535.92 3538.38 3547.63 3556.09 3564.19 3572.64 3583.07 3597.57 3602.49 3602.65 3600.74 3599.78 3600.66 3605.95 3613.54 3616.37 3618.59 3619.52 3617.86 3614.84 3602.71 3594.22 3592.59 3589.73 3586.22 3596.01 3602.05 3600.65 3606.98 3617.3 3649.45 3678.69 3702.14 3728.61 3757.26 3773.28 3789.33 3805.22 3822.17 3839.75 3814.53 3798.23 3799.13 3801.14 3803.77 3805.21 3808.77 3816.82 3818.47 3817 3807.38 3802.23 3805.61 3805.88 3804.64 3791.95 3781.39 3774.72 3778.9 3788.77 3791.51 3789.73 3778.69 3763.99 3747.32 3745.17 3742.21 3737.78 3733.05 3728.19 3736.08 3741.21 3740.89 3744.37 3749.8 3751.59 3755.48 3763.72 3770.49 3776.65 3786.34 3790.47 3783.33 -999 -999 -999 -999 -999 -999 -999 -999 -999 -999 -999 -999 -999 -999 -999 -999 -999 -999 -999 -999 -999 -999 -999 2031.52 2023.19 2017.54 2013.19 2012.31 2012.6 2015.32 2017.99 2020.7 2030.62 2038.76 2043.28 2048.13 2053.22 2058.83 2062.57 2062.57 2066.47 2072.37 2080.44 2089.46 2100.53 2110.18 2119.27 2129.2 2137.72 2143.41 2148.77 2154.03 2160.07 2166.5 2173.81 2178.3 2181.38 2183.38 2185.61 2188.44 2189.81 2190.47 2194.28 2196.92 2197.24 2196.63 2195.52 2193.17 2192.85 2196.63 2198.13 2198.49 2201.23 2200.76 2193.91 2189.51 2186.3 2183.61 2180.59 2176.85 2174.12 2171.86 2168.9 2166.29 2164.38 2163.28 2162.56 2158.58 2155.5 2154.11 2151.37 2147.97 2142.24 2137.5 2134.62 2130.92 2126.86 2120.12 2114.15 2109.43 2098.73 2085.08 2076.42 2067.97 2059.61 2051.31 2043 2043.65 2044.47 2045.61 2046.49 2047.25 2030.3 2014.59 2000.65 1987.26 1974.08 1965.52 1957.85 1951.71 1944.03 1935.56 1922.63 1912.08 1905.88 1898.68 1890.97 1884.43 1877.68 1870.32 1864.1 1858.42 1852.16 1846.09 1840.23 1834.91 1829.81 1823.14 1816.95 1811.56 1807.87 1805.01 1798.79 1792.65 1786.52 1781.34 1776.59 1770.85 1765.79 1761.91 1757.07 1751.74 1747.38 1743.23 1739.37 1737.52 1736.65 1732.24 1727.7 1722.77 1716.58 1709.71 1705.81 1702.07 1698.58 1696.29 1694.55 1693.58 1692.21 1690.08 1688.79 1687.91 1686.96 1686.01 1685.08 1684.62 1684.41 1682.61 1680.84 1679.09 1676.49 1673.43 1673.82 1673.19 1670.5 1669.04 1668.19 1665.91 1663.3 1660.01 1657.34 1654.99 1652 1649.09 1646.24 1642.15 1637.39 1630.5 1624.09 1618.48 1615.16 1612.97 1610.31 1607.88 1605.82 1603.44 1600.89 1599.63 1597.68 1594.25 1590.51 1586.6 1585.27 1583.8 1582.08 1581.3 1580.98 1577.8 1576.36 1578.34 1582.12 1586.89 1587.81 1587.55 1584.95 1581.31 1577.09 1573.8 1571.26 1570.23 1569.59 1569.13 1567.26 1567.41 1571.64 1573.66
3368.97 3362.21 3351.29 3348.6 3346.7 3346.32 3344.05 3340.83 3342.48 3343.72 3344.14 3350.18 3359.13 3361.22 3362.84 3363.51 3362.84 3361.48 3359.14 3357.93 3358.95 3358.82 3358.1 3359.86 3361.5 3362.89 3363.19 3362.95 3362.83 3363.35 3365.16 3366.72 3368.17 3377.76 3383.64 3382.13 3377.9 3372.29 3373.91 3377.58 3385.45 3391.33 3396.26 3399.96 3403.25 3405.8 3411.11 3417.87 3419.74 3422.43 3426.82 3432.78 3439.61 3450.68 3459.23 3462.78 3467.56 3473.02 3476.66 3481.66 3489.49 3498.94 3509.32 3506.81 3507.68 3515.35 3519.45 3521.8 3519.37 3523.38 3540.45 3553.31 3564.19 3569.37 3577.92 3593.42 3600.2 3602.65 3598.47 3595.97 3596.77 3602.27 3610.19 3611.67 3614.08 3618.42 3617 3612.69 3596.39 3584.91 3582.6 3579.28 3575.42 3586.35 3592.92 3590.78 3596.76 3606.92 3640.92 3669.63 3687.37 3715.2 3748.79 3759.62 3775.01 3799.92 3818.36 3833.75 3812.14 3797.1 3794.48 3795.57 3798.52 3799.92 3801.16 3802.1 3800.79 3798.35 3778.82 3766.22 3766.89 3766.6 3765.82 3753.96 3744.49 3739.49 3753.44 3777.23 3777.76 3776.44 3771.44 3757.74 3739.71 3742.11 3741.51 3734.92 3730.92 3728.19 3736.08 3741.21 3740.89 3744.37 3749.8 3748.95 3749.5 3752.88 3756.78 3760.98 3773.41 3782.48 3784.88 -999 -999 -999 -999 -999 -999 -999 -999 -999 -999 -999 -999 -999 -999 -999 -999 -999 -999 -999 -999 -999 -999 -999 2029.76 2021.59 2016.62 2013.19 2012.31 2011.62 2011.27 2012.21 2013.81 2021.86 2028.8 2033.57 2039.56 2046.24 2053.33 2058.95 2061.68 2066.47 2072.37 2079.41 2087.43 2097.56 2107.73 2118.07 2127.04 2134.86 2140.42 2145.87 2151.32 2157.8 2164.75 2172.72 2177.15 2179.84 2183.08 2185.67 2187.01 2187.83 2188.4 2192.11 2194.66 2194.93 2193.41 2191 2190 2190.57 2194.28 2195.72 2196.04 2199.16 2198.86 2191.71 2187.26 2184.1 2181.12 2177.91 2174.18 2171.42 2169.12 2167.8 2166.29 2164.38 2163.28 2162.56 2157.09 2153 2151.53 2149.82 2147.97 2140.53 2134.07 2129.37 2127.44 2126.86 2114.71 2104.92 2099.46 2088.59 2075.04 2064.45 2055.68 2050.22 2044.58 2038.8 2039.25 2039.84 2040.69 2041.58 2042.51 2025.91 2011.26 1999.84 1987.24 1974.03 1964.37 1955.74 1948.89 1940.97 1932.48 1921.3 1911.84 1905.47 1898.15 1890.34 1882.58 1875.04 1867.69 1862.14 1857.42 1851.07 1844.91 1838.96 1833.45 1828.1 1821.78 1815.72 1810.03 1806.35 1803.63 1798 1792.24 1786.07 1780.82 1775.98 1769.54 1764 1760.07 1755.22 1749.89 1745.44 1741.37 1737.96 1736.43 1735.82 1731.4 1726.85 1721.93 1714.82 1706.6 1703.85 1700.88 1697.39 1694.6 1692.13 1691.85 1690.95 1688.82 1687.12 1685.64 1684.64 1683.51 1682.11 1681.97 1682.44 1680.59 1678.78 1676.98 1674.28 1671.11 1671.51 1670.93 1668.4 1667.58 1667.59 1665.3 1662.44 1658.39 1655.95 1654.3 1651.2 1648.19 1645.29 1640.42 1634.54 1627.41 1620.84 1615.19 1611.91 1609.79 1607.12 1604.69 1602.68 1600.9 1599.22 1596.29 1593.52 1590.98 1588 1584.78 1584.54 1583.6 1581.24 1579.83 1578.88 1574.71 1572.24 1573.1 1577.01 1582.52 1583.68 1583.44 1580.37 1574.95 1568.33 1567.14 1566.21 1565.81 1565.39 1564.95 1563.53 1563.45 1566.05 1569.07
3363.49 3358 3349.22 3346.67 3344.4 3342.6 3340.79 3338.93 3340.2 3341.67 3343.64 3348.85 3355.82 3357.04 3358.06 3358.73 3358.81 3358.58 3356.46 3355.17 3355.51 3355.7 3355.79 3356.59 3357.54 3358.85 3358.3 3356.84 3356.63 3357 3358.53 3361.19 3364.42 3371.07 3375.03 3373.74 3370.9 3367.23 3370.63 3375.6 3383.8 3389.8 3394.77 3398.41 3401.65 3404.17 3408.69 3414.28 3417.48 3421.08 3425.5 3432 3439.61 3449.28 3457.13 3461.52 3466.32 3471.39 3475.43 3480.19 3486.43 3495.09 3505.07 3501.88 3501.73 3507.64 3512.09 3515.81 3516.97 3521.98 3534.66 3546.94 3559.1 3564.21 3572.92 3589.1 3596.05 3598.4 3596.76 3595.97 3596.77 3599.92 3604.33 3604.16 3604.53 3605.97 3603.23 3598.36 3586.68 3578.13 3575.4 3573.41 3571.74 3580.42 3586.93 3589.31 3596.76 3606.92 3630.83 3653.14 3672.64 3698.77 3728.88 3740.46 3756.07 3780.12 3795.41 3806.47 3797.73 3792.37 3793.32 3795.57 3798.52 3790.03 3782.57 3777.09 3773.73 3771.31 3756.76 3751.12 3763.19 3766.6 3765.82 3742.99 3726.01 3720.26 3723.83 3732.33 3749.15 3762.32 3767.99 3757.74 3739.71 3742.11 3741.51 3734.92 3730.92 3728.19 3732.42 3735.7 3737.3 3740.26 3743.97 3743.85 3745.05 3748.92 3754.5 3760.98 3770.44 3778.46 3783.89 -999 -999 -999 -999 -999 -999 -999 -999 -999 -999 -999 -999 -999 -999 -999 -999 -999 -999 -999 -999 -999 -999 -999 2028.31 2019.81 2015.12 2012.25 2010.61 2009.85 2010.87 2011.83 2012.79 2016.22 2019.81 2023.88 2028.14 2032.57 2037.67 2042.8 2048.2 2055.65 2064.26 2070.76 2078.71 2089.74 2101.61 2114.06 2122.93 2130.77 2136.64 2142.56 2148.57 2156.15 2162.92 2168.01 2173.23 2178.51 2181 2183.3 2185.33 2186.9 2188.27 2189.58 2190.48 2190.64 2189.94 2188.79 2187.88 2188.53 2192.34 2194.53 2195.91 2197.69 2196.97 2191.35 2186.46 2181.94 2179.01 2175.87 2172.24 2169.44 2167.02 2165.36 2163.63 2161.74 2160.53 2159.63 2155.26 2151.79 2149.97 2147.23 2144.02 2138.41 2133.34 2129.2 2126.12 2123.59 2111.16 2100.05 2091.06 2080.17 2068.24 2059.99 2053.38 2049.84 2044.71 2038.79 2036.49 2035.12 2035.61 2036.48 2037.53 2021.78 2007.59 1995.89 1983.56 1970.87 1963.11 1955.71 1948.74 1940.65 1931.97 1920.89 1911.3 1904.32 1896.83 1889.03 1880.95 1873.17 1865.79 1859.77 1854.39 1848.24 1842.29 1836.58 1831.12 1825.74 1819.45 1813.87 1809.58 1805.7 1802.04 1796.42 1790.68 1784.54 1779.25 1774.34 1768.48 1763.32 1759.4 1754.48 1749.04 1744.07 1739.66 1736.25 1734.57 1733.73 1729.33 1724.77 1719.8 1713.02 1705.31 1702.02 1698.65 1695.09 1692.24 1689.73 1688.88 1687.59 1685.45 1683.75 1682.25 1681.29 1680.38 1679.55 1679.62 1680.15 1678.32 1676.43 1674.37 1672.33 1670.27 1669.7 1668.81 1667.32 1666.24 1665.39 1663.29 1660.8 1657.48 1655.22 1653.49 1650.3 1646.9 1642.99 1637.51 1631.24 1623.93 1617.96 1614.49 1611.22 1608.06 1605.5 1603.15 1601.15 1599.45 1597.88 1594.82 1592.02 1589.69 1585.88 1581.34 1579.75 1577.97 1575.85 1574.36 1573.17 1570.18 1568.59 1569.7 1572.05 1575.1 1574.89 1573.97 1571.68 1568.07 1563.76 1562.63 1561.88 1561.86 1561.61 1561.25 1562.04 1562.82 1563.49 1565.74
3357.98 3353.75 3347.15 3344.73 3342.07 3338.87 3337.5 3337.02 3337.89 3339.63 3343.11 3347.53 3352.48 3352.81 3353.24 3353.91 3354.75 3355.66 3353.76 3352.38 3352.05 3352.55 3353.46 3353.28 3353.56 3354.78 3353.39 3350.69 3350.39 3350.61 3351.86 3355.62 3360.65 3364.33 3366.39 3365.32 3363.85 3362.14 3367.33 3373.61 3382.12 3388.26 3393.26 3396.84 3400.04 3402.53 3406.26 3410.66 3415.22 3419.72 3424.17 3431.2 3439.61 3447.84 3455.03 3460.24 3465.06 3469.75 3474.2 3478.69 3483.36 3491.21 3500.79 3496.92 3495.73 3499.91 3504.68 3509.79 3514.56 3520.51 3528.88 3540.52 3553.98 3559.01 3567.89 3584.75 3591.86 3594.12 3595.06 3595.97 3596.77 3597.58 3598.44 3596.6 3594.9 3593.53 3589.44 3584 3576.96 3571.3 3568.16 3567.49 3568.03 3574.44 3580.96 3587.78 3596.76 3606.92 3620.64 3636.67 3657.85 3682.35 3709 3721.31 3737.14 3760.35 3772.54 3779.31 3783.37 3787.66 3792.12 3795.57 3798.52 3780.04 3763.91 3752.25 3746.79 3744.39 3734.77 3736.13 3759.32 3766.6 3765.82 3731.9 3707.52 3701.04 3694.49 3688.06 3720.82 3748.31 3764.38 3757.74 3739.71 3742.11 3741.51 3734.92 3730.92 3728.19 3728.71 3730.18 3733.66 3736.12 3738.11 3738.71 3740.56 3744.92 3752.19 3760.98 3767.42 3774.45 3782.86 -999 -999 -999 -999 -999 -999 -999 -999 -999 -999 -999 -999 -999 -999 -999 -999 -999 -999 -999 -999 -999 -999 -999 2026.84 2018.03 2013.6 2011.3 2008.89 2008.08 2010.44 2011.44 2011.76 2010.53 2010.8 2014.2 2016.76 2018.95 2022.1 2026.79 2034.72 2044.82 2056.13 2062.11 2070 2081.9 2095.45 2110.03 2118.79 2126.67 2132.83 2139.22 2145.8 2154.5 2161.05 2163.32 2169.28 2177.16 2178.89 2180.93 2183.62 2185.96 2188.13 2187.02 2186.28 2186.32 2186.43 2186.57 2185.73 2186.47 2190.38 2193.32 2195.79 2196.19 2195.09 2190.96 2185.66 2179.76 2176.89 2173.82 2170.29 2167.44 2164.91 2162.91 2160.96 2159.09 2157.76 2156.68 2153.43 2150.57 2148.4 2144.63 2140.06 2136.28 2132.61 2129.01 2124.8 2120.29 2107.6 2095.11 2082.69 2071.72 2061.41 2055.51 2051.1 2049.43 2044.85 2038.77 2033.69 2030.36 2030.52 2031.35 2032.52 2017.62 2003.89 1991.92 1979.86 1967.69 1961.85 1955.67 1948.59 1940.33 1931.46 1920.47 1910.74 1903.17 1895.49 1887.71 1879.3 1871.29 1863.87 1857.38 1851.33 1845.39 1839.66 1834.18 1828.77 1823.36 1817.1 1812.02 1809.11 1805.06 1800.42 1794.82 1789.1 1782.99 1777.66 1772.68 1767.41 1762.64 1758.73 1753.74 1748.18 1742.7 1737.94 1734.52 1732.69 1731.63 1727.25 1722.68 1717.66 1711.2 1704 1700.16 1696.41 1692.77 1689.87 1687.31 1685.88 1684.21 1682.06 1680.35 1678.84 1677.93 1677.24 1676.96 1677.26 1677.84 1676.04 1674.07 1671.75 1670.36 1669.42 1667.87 1666.69 1666.21 1664.9 1663.17 1661.27 1659.15 1656.55 1654.49 1652.67 1649.39 1645.59 1640.68 1634.6 1627.91 1620.43 1615.09 1613.75 1610.52 1606.32 1603.88 1601.61 1599.62 1598 1596.54 1593.33 1590.5 1588.38 1583.75 1577.88 1574.92 1572.33 1570.44 1568.87 1567.44 1565.64 1564.91 1566.27 1567.09 1567.68 1566.1 1564.54 1563 1561.17 1559.16 1558.11 1557.54 1557.89 1557.82 1557.54 1560.56 1562.17 1560.95 1562.41
3352.97 3349.87 3345.11 3342.12 3339.11 3336 3335.07 3335.23 3335.89 3337.47 3340.89 3344.6 3348.47 3348.91 3349.41 3350.07 3350.43 3350.61 3348.54 3347.08 3346.84 3347.77 3349.33 3349.22 3349.49 3350.58 3348.79 3345.54 3345.19 3345.31 3346.36 3349.99 3354.94 3356.59 3357.82 3358.21 3358.07 3357.7 3364.3 3371.32 3379.34 3385.32 3390.34 3394.49 3397.89 3399.88 3403.19 3407.21 3413.29 3418.84 3423.46 3430.54 3438.93 3446.47 3453.49 3459.56 3464.48 3468.89 3473.26 3477.55 3481.73 3489.3 3498.67 3494.04 3492.01 3495.11 3499.78 3505.28 3511.75 3518.44 3525.67 3535.82 3547.54 3552.65 3562.42 3581.86 3587.69 3586.65 3589.69 3591.95 3592.72 3590.77 3587.39 3584.42 3581.21 3577.4 3573.68 3570.02 3566.31 3562.97 3560.39 3561.2 3563.75 3569.3 3575.65 3583.72 3592.88 3602.69 3609.67 3620.52 3639.28 3658.38 3677.76 3688.51 3702.65 3723.78 3733.74 3738.1 3746.75 3754.27 3759.51 3767.52 3777.19 3759.69 3743.9 3731.32 3725.47 3722.93 3715.3 3714.63 3727.48 3730.8 3729.14 3702.96 3684.87 3682.73 3673.47 3660.73 3697.18 3725.66 3737.14 3740.43 3739.96 3740.81 3739.66 3734.47 3730.58 3727.32 3726.52 3727.44 3731.87 3732.96 3732.35 3733.55 3735.75 3740 3747.3 3756.19 3759.4 3764.4 3772.99 3779.18 -999 -999 -999 -999 -999 -999 -999 -999 -999 -999 -999 -999 -999 -999 -999 -999 -999 -999 -999 -999 -999 -999 -999 -999 2016.25 2010.77 2008.4 2007.35 2008.88 2009.38 2009.35 2006.96 2006.76 2011.05 2012.19 2011.76 2013.83 2017.77 2025.51 2036.93 2050.44 2056.6 2065.02 2078.23 2093.3 2109.64 2116.94 2123.67 2129.24 2136.1 2143.73 2153.45 2160.5 2162.25 2167.72 2175.1 2176.9 2179 2181.74 2184.43 2187.11 2185.51 2184.45 2184.47 2185.04 2185.89 2185.11 2185.59 2188.62 2191.65 2194.71 2193.77 2192.02 2188.61 2183.57 2177.71 2175.46 2172.6 2168.49 2165.39 2162.75 2160.69 2158.68 2156.74 2155.34 2154.19 2151.46 2148.87 2146.48 2142.65 2138.1 2134.78 2131.21 2127 2121.26 2114.69 2100.77 2087.37 2074.49 2064.63 2056.23 2051.53 2048.36 2048.18 2044.13 2038.14 2032.05 2027.66 2026.54 2026.16 2026.11 2013.09 2000.53 1988.53 1977.32 1966.47 1961.35 1955.68 1948.78 1940.39 1931.24 1919.75 1909.62 1901.83 1894.08 1886.31 1877.78 1869.69 1862.22 1855.4 1848.86 1842.97 1837.31 1831.94 1826.54 1821.09 1814.86 1810.03 1807.81 1803.74 1798.74 1793.22 1787.51 1781.28 1775.88 1770.84 1765.85 1761.31 1757.54 1752.56 1746.95 1741.44 1736.65 1733.19 1731.14 1729.78 1725.42 1720.88 1715.87 1709.87 1703.36 1698.87 1694.58 1690.55 1687.54 1684.99 1683.23 1681.47 1679.68 1678.06 1676.52 1675.61 1674.87 1674.44 1674.74 1675.41 1674.11 1672.43 1669.97 1668.68 1667.96 1666.56 1665.35 1664.52 1662.84 1660.72 1658.85 1656.98 1655.07 1653.21 1651.36 1648.04 1644.13 1638.94 1632.84 1626.27 1618.71 1613.36 1612.2 1608.7 1604.01 1601.67 1599.47 1597.52 1595.95 1594.55 1591.74 1589.09 1586.71 1582.02 1576.18 1572.54 1569.49 1567.55 1565.59 1563.6 1562.47 1562.02 1562.94 1562.83 1562.2 1560.54 1558.96 1557.52 1556.44 1555.52 1554.53 1554.07 1554.68 1555.1 1555.44 1558.75 1560.34 1558.47 1559.55
3348.37 3346.32 3343.09 3338.81 3335.49 3333.94 3333.47 3333.53 3334.15 3335.14 3336.94 3339.98 3343.71 3345.24 3346.46 3347.11 3345.76 3343.36 3340.73 3339.19 3339.78 3341.31 3343.33 3344.32 3345.26 3346.17 3344.4 3341.28 3340.91 3340.97 3341.9 3344.21 3347.2 3347.77 3349.19 3352.22 3353.47 3353.82 3361.43 3368.68 3375.41 3380.94 3385.95 3391.28 3395.15 3396.19 3399.43 3403.85 3411.62 3418.42 3423.36 3429.99 3437.54 3445.14 3452.5 3459.44 3464.55 3468.78 3472.6 3476.73 3481.52 3489.3 3498.67 3493.18 3490.45 3493.15 3497.29 3502.2 3508.45 3515.69 3524.96 3532.71 3539.69 3545.04 3556.45 3580.31 3583.39 3575.88 3580.56 3583.88 3584.56 3579.35 3571.09 3567.51 3563.21 3557.43 3555.73 3556.14 3554.49 3553.02 3551.92 3554.45 3558.84 3564.9 3570.92 3577.02 3585.06 3594.19 3597.83 3604.32 3616.74 3626.58 3635.16 3642.18 3652.76 3670.74 3679.21 3682.99 3688.37 3693.08 3696.46 3712.25 3734.83 3728.92 3722.16 3713.81 3709.19 3706.33 3697.85 3686.18 3668.72 3660.52 3657.18 3656.32 3657.89 3664.83 3659.96 3649.08 3677.54 3694.14 3686.86 3706.27 3740.46 3738.21 3735.97 3733.52 3729.88 3725.55 3725.81 3727.44 3731.87 3730.66 3726.57 3728.24 3730.52 3734.07 3739.75 3746.55 3746.36 3748.22 3754.21 3757.14 -999 -999 -999 -999 -999 -999 -999 -999 -999 -999 -999 -999 -999 -999 -999 -999 -999 -999 -999 -999 -999 -999 -999 -999 2023.09 2010.65 2009.14 2007.63 2006.18 2005.61 2005.51 2005.43 2007.59 2014.27 2014.22 2010.72 2012.57 2015.39 2020.27 2031.81 2047.04 2054.07 2063.65 2078.57 2095.14 2112.86 2117.35 2121.7 2125.82 2133.17 2142.31 2152.96 2161.25 2164.79 2168.51 2172.28 2174.99 2177.49 2179.64 2182.28 2185.2 2185.04 2184.95 2185.04 2185.74 2186.74 2185.98 2185.85 2187.03 2189.5 2192.68 2190.4 2187.74 2184.24 2180.15 2175.76 2174.68 2172.18 2166.84 2163.25 2160.49 2158.66 2156.75 2154.65 2153.23 2152.12 2149.32 2146.64 2144.17 2141.25 2138.1 2133.87 2129.09 2123.14 2115.39 2106.72 2090.65 2076.72 2066.31 2058.76 2052.57 2047.92 2045.15 2046.02 2042.54 2036.88 2031.55 2026.91 2023.59 2020.78 2018.18 2008.06 1997.45 1985.64 1975.92 1967.19 1961.59 1955.76 1949.31 1940.84 1931.32 1918.72 1907.93 1900.28 1892.58 1884.81 1876.38 1868.33 1860.82 1853.78 1846.92 1840.92 1835.19 1829.82 1824.38 1818.87 1812.68 1807.86 1805.64 1801.73 1796.95 1791.58 1785.88 1779.38 1773.86 1768.79 1763.76 1759.29 1755.79 1750.91 1745.31 1740.27 1735.77 1732.23 1729.9 1728.14 1723.81 1719.32 1714.4 1709.01 1703.36 1698.12 1693.1 1688.4 1685.19 1682.71 1680.88 1679.33 1678.26 1676.84 1675.23 1674.26 1673.2 1671.94 1672.03 1672.81 1672.5 1671.46 1668.99 1667.26 1665.87 1665.73 1664.76 1662.23 1660.03 1658.01 1655.99 1654.26 1653.01 1651.37 1649.53 1646.23 1642.48 1637.74 1632.21 1626.27 1618.71 1612.74 1609.78 1605.72 1601.1 1598.84 1596.72 1594.83 1593.28 1591.89 1590.02 1587.75 1584.65 1580.64 1576.18 1572.54 1569.37 1567.09 1564.43 1561.56 1560.56 1559.83 1559.64 1559.15 1558.51 1558.03 1557.05 1555.08 1553.76 1552.74 1551.79 1551.41 1552.17 1553.4 1554.9 1556.56 1557.28 1556.04 1557.1
3343.83 3342.83 3341.09 3335.55 3331.9 3331.91 3331.89 3331.85 3332.43 3332.86 3333.01 3335.43 3339 3341.6 3343.54 3344.2 3341.14 3336.21 3333.03 3331.4 3332.83 3334.94 3337.41 3339.47 3341.08 3341.82 3340.08 3337.08 3336.69 3336.7 3337.5 3338.49 3339.57 3339.09 3340.65 3346.34 3348.93 3349.99 3358.58 3366.09 3371.51 3376.61 3381.61 3388.11 3392.45 3392.52 3395.72 3400.52 3409.97 3417.99 3423.25 3429.44 3436.17 3443.83 3451.51 3459.34 3464.62 3468.67 3471.94 3475.91 3481.32 3489.3 3498.67 3492.34 3488.91 3491.2 3494.81 3499.15 3505.19 3512.95 3524.29 3529.61 3531.95 3537.52 3550.51 3578.84 3579.11 3565.27 3571.55 3575.91 3576.52 3568.07 3555.08 3550.93 3545.6 3537.85 3538.16 3542.5 3542.85 3543.21 3543.59 3547.8 3553.98 3560.55 3566.27 3570.39 3577.34 3585.8 3586.21 3588.5 3594.61 3595.56 3593.93 3597.45 3604.7 3619.64 3626.76 3629.98 3632.34 3634.44 3636.05 3659.18 3693.81 3698.86 3700.83 3696.67 3693.2 3690.04 3680.74 3658.81 3611.96 3593.48 3588.6 3611.12 3631.44 3647.4 3646.68 3637.62 3658.35 3663.68 3638.15 3673.27 3740.95 3735.66 3732.29 3732.62 3729.18 3723.81 3725.11 3727.44 3731.87 3728.36 3720.87 3723 3725.36 3728.21 3732.3 3737.06 3733.55 3732.36 3735.76 3735.55 3733.52 3726.74 -999 -999 -999 -999 -999 -999 -999 -999 -999 -999 -999 -999 -999 -999 -999 -999 -999 -999 -999 -999 -999 -999 -999 2010.54 2009.87 2007.94 2003.46 2001.88 2001.73 2003.91 2008.37 2017.51 2016.21 2009.69 2011.32 2013.07 2015.08 2026.78 2043.68 2051.57 2062.28 2078.94 2096.98 2116.07 2117.77 2119.78 2122.42 2130.28 2140.91 2152.47 2161.97 2167.33 2169.26 2169.49 2173.09 2176 2177.56 2180.16 2183.3 2184.56 2185.45 2185.61 2186.43 2187.59 2186.85 2186.13 2185.43 2187.37 2190.66 2187.08 2183.52 2179.94 2176.78 2173.82 2173.9 2171.77 2165.2 2161.13 2158.26 2156.65 2154.84 2152.58 2151.14 2150.07 2147.2 2144.45 2141.89 2139.87 2138.1 2132.97 2127.02 2119.31 2109.61 2098.88 2080.73 2066.24 2058.3 2053 2048.95 2044.37 2041.98 2043.9 2040.98 2035.63 2031.05 2026.19 2020.66 2015.46 2010.39 2003.08 1994.4 1982.79 1974.55 1967.9 1961.82 1955.83 1949.85 1941.28 1931.4 1917.71 1906.25 1898.75 1891.09 1883.32 1874.99 1866.99 1859.44 1852.17 1845 1838.9 1833.1 1827.72 1822.24 1816.68 1810.52 1805.72 1803.5 1799.74 1795.18 1789.96 1784.26 1777.49 1771.86 1766.76 1761.7 1757.3 1754.08 1749.29 1743.69 1739.11 1734.9 1731.28 1728.66 1726.51 1722.22 1717.79 1712.94 1708.16 1703.36 1697.38 1691.65 1686.25 1682.88 1680.46 1678.57 1677.2 1676.86 1675.63 1673.96 1672.94 1671.56 1669.46 1669.35 1670.24 1670.89 1670.51 1668.02 1665.85 1663.81 1664.9 1664.2 1659.94 1657.25 1655.33 1653.17 1651.56 1650.97 1649.56 1647.71 1644.44 1640.85 1636.55 1631.59 1626.27 1618.71 1612.15 1607.38 1602.78 1598.22 1596.05 1594 1592.17 1590.64 1589.26 1588.32 1586.43 1582.61 1579.28 1576.18 1572.54 1569.26 1566.62 1563.27 1559.54 1558.69 1557.69 1556.38 1555.52 1554.88 1555.55 1555.17 1552.67 1551.11 1550 1549.08 1548.78 1549.69 1551.73 1554.38 1554.42 1554.25 1553.65 1554.68
3339.51 3337.63 3334.75 3333.01 3331.59 3330.65 3330.39 3330.46 3330.94 3331.29 3331.42 3331.24 3330.98 3331.66 3332.61 3334.21 3332.75 3329.72 3328.47 3328.1 3329.46 3330.52 3331.45 3334.63 3336.97 3337.61 3336.69 3334.96 3333.6 3333.26 3335.02 3335.62 3335.66 3337.52 3339.84 3343.01 3345.8 3348.38 3356.84 3363.68 3367.31 3371.92 3377.07 3383.48 3388.67 3391.6 3395.72 3400.52 3408.75 3416.22 3422.37 3428.83 3435.54 3443.58 3451.51 3459.34 3463.76 3466.53 3469.76 3473.97 3480.25 3486.54 3492.96 3489.47 3487.84 3489.78 3493.15 3497.27 3503.01 3509.81 3518.82 3521.42 3520.83 3528.1 3541.5 3567.49 3569.84 3560.22 3564.73 3567.89 3568.44 3558.31 3542.89 3541.31 3539.27 3536.31 3534.57 3533.56 3534.19 3534.89 3535.76 3539.39 3544.48 3552.82 3561.02 3569.11 3577.34 3585.8 3586.21 3586.36 3585.83 3587.07 3589.09 3592.77 3598.64 3608.86 3614.79 3618.55 3623.45 3627.4 3629.41 3639.82 3654.92 3657.63 3658.18 3654.52 3652.04 3650.11 3643.49 3630.62 3605.7 3593.9 3588.72 3601.16 3610.67 3614.36 3616.66 3617.98 3636.79 3644.16 3628.88 3646.56 3681.98 3691.81 3705.47 3727.28 3728.42 3719.51 3723.38 3726.06 3726.19 3724.14 3720.87 3722.45 3724.48 3727.45 3730.86 3734.53 3728.67 3724.05 3721.75 3719.31 3716.72 3716.79 -999 -999 -999 -999 -999 -999 -999 -999 -999 -999 -999 -999 -999 -999 -999 -999 -999 -999 -999 -999 -999 -999 -999 2040.35 2032.12 2022.6 2010.32 2005.65 2004.59 2005.55 2008.24 2014.45 2013.82 2009.69 2011.32 2014.42 2020.66 2030.98 2043.68 2051.57 2063.16 2082.59 2100.82 2118.81 2123.59 2128.84 2135.1 2143.1 2152.17 2162.14 2169.86 2173.06 2173.34 2172.16 2174.71 2177.15 2179.47 2181.84 2184.3 2185.6 2186.51 2186.66 2187.48 2188.63 2188.1 2187.49 2186.75 2187.32 2188.6 2185.34 2182.07 2178.71 2175.44 2172.18 2171.96 2169.61 2162.97 2158.88 2156.02 2154.39 2152.52 2150.16 2148.65 2147.55 2144.7 2141.92 2139.22 2136.94 2134.85 2128.61 2121.42 2112.17 2101.48 2090.03 2074.25 2061.31 2053.36 2049.03 2046.43 2044.28 2042.65 2041.88 2039.26 2035.63 2030.77 2025.63 2019.82 2014.38 2009.08 2002.02 1993.68 1982.62 1974.66 1968.17 1962.43 1956.5 1950.01 1941.28 1931.4 1918.21 1907.03 1899.35 1891.2 1882.77 1874.43 1866.28 1858.28 1850.78 1843.47 1837.17 1831.23 1825.86 1820.3 1814.62 1808.41 1803.57 1801.29 1798.21 1794.69 1788.66 1782.53 1776.08 1770.55 1765.44 1760.48 1755.98 1752.27 1747.2 1741.42 1738.2 1734.63 1730.19 1726.92 1724.2 1719.95 1715.37 1709.99 1705.42 1701.19 1695.86 1690.57 1685.21 1681.77 1679.25 1676.55 1674.39 1673.26 1671.71 1669.92 1669.27 1668.59 1667.87 1668.66 1670.24 1669.65 1668.62 1666.73 1664.76 1662.74 1662.5 1660.86 1656.41 1653.55 1651.46 1650.85 1650.31 1649.89 1648.53 1646.69 1643.43 1639.67 1634.84 1629.05 1622.76 1614.44 1607.69 1603.85 1600.27 1596.8 1594.76 1592.83 1591.05 1589.58 1588.23 1586.69 1584.47 1580.84 1577.89 1575.26 1572.17 1568.99 1565.51 1562.24 1559.04 1558.04 1557.01 1555.89 1555.06 1554.35 1554.67 1554.22 1552.22 1550.81 1549.69 1548.61 1547.97 1548.17 1549.36 1551.06 1551.62 1551.83 1551.34 1552.59
3335.17 3332.4 3328.36 3330.46 3331.26 3329.39 3328.88 3329.05 3329.43 3329.71 3329.81 3327.05 3322.91 3321.66 3321.66 3324.18 3324.3 3323.2 3323.88 3324.77 3326.07 3326.07 3325.45 3329.77 3332.82 3333.37 3333.27 3332.83 3330.49 3329.82 3332.51 3332.73 3331.73 3335.95 3338.99 3339.69 3342.64 3346.74 3355.08 3361.24 3363.1 3367.21 3372.5 3378.81 3384.91 3390.64 3395.72 3400.52 3407.51 3414.45 3421.46 3428.21 3434.91 3443.32 3451.51 3459.34 3462.91 3464.38 3467.55 3472.02 3479.16 3483.79 3487.22 3486.6 3486.75 3488.36 3491.48 3495.38 3500.81 3506.62 3513.35 3513.21 3509.67 3518.65 3532.42 3556.12 3560.5 3555.13 3557.87 3559.83 3560.32 3548.53 3530.67 3531.67 3532.95 3534.69 3530.98 3524.58 3525.49 3526.54 3527.87 3530.94 3534.93 3545.07 3555.79 3567.76 3577.34 3585.8 3586.21 3584.12 3577.08 3578.52 3584.2 3588.07 3592.47 3598.1 3602.78 3607.08 3614.54 3620.32 3622.72 3620.61 3616.47 3616.9 3616.1 3612.92 3611.4 3610.66 3606.65 3602.87 3599.13 3594.33 3588.83 3591.09 3589.78 3581.76 3586.78 3598.37 3615.27 3624.79 3619.43 3620.17 3624.3 3648.65 3679.06 3721.62 3727.67 3715.17 3721.65 3724.61 3720.53 3719.86 3720.87 3721.89 3723.59 3726.68 3729.41 3731.99 3723.73 3715.63 3707.78 3703.06 3699.91 3706.83 -999 -999 -999 -999 -999 -999 -999 -999 -999 -999 -999 -999 -999 -999 -999 -999 -999 -999 -999 -999 -999 -999 -999 2071.36 2055.05 2037.53 2017.4 2009.47 2007.5 2007.2 2008.08 2011.41 2011.4 2009.69 2011.32 2015.85 2026.27 2035.26 2043.68 2051.57 2064.08 2086.26 2104.73 2121.59 2129.52 2138.11 2148 2156.21 2163.67 2171.99 2177.86 2178.91 2177.49 2174.86 2176.35 2178.33 2181.38 2183.55 2185.3 2186.65 2187.59 2187.73 2188.54 2189.69 2189.35 2188.87 2188.08 2187.29 2186.52 2183.58 2180.6 2177.48 2174.08 2170.52 2170.01 2167.44 2160.73 2156.62 2153.77 2152.11 2150.19 2147.71 2146.14 2145 2142.18 2139.38 2136.54 2134 2131.58 2124.22 2115.77 2105.02 2093.34 2081.18 2067.77 2056.35 2048.41 2045.04 2043.89 2044.21 2043.29 2039.89 2037.52 2035.63 2030.48 2025.06 2018.98 2013.29 2007.76 2000.96 1992.97 1982.44 1974.77 1968.45 1963.06 1957.18 1950.18 1941.28 1931.4 1918.72 1907.81 1899.97 1891.31 1882.22 1873.86 1865.55 1857.12 1849.38 1841.92 1835.42 1829.35 1823.99 1818.35 1812.55 1806.3 1801.4 1799.06 1796.66 1794.2 1787.34 1780.78 1774.66 1769.23 1764.11 1759.25 1754.65 1750.46 1745.1 1739.13 1737.3 1734.35 1729.1 1725.17 1721.86 1717.66 1712.93 1707.02 1702.65 1699.01 1694.34 1689.49 1684.16 1680.66 1678.03 1674.52 1671.56 1669.66 1667.76 1665.86 1665.59 1665.62 1666.24 1667.96 1670.24 1668.39 1666.73 1665.43 1663.67 1661.66 1660.08 1657.49 1652.87 1649.84 1647.57 1648.51 1649.06 1648.79 1647.49 1645.67 1642.41 1638.48 1633.13 1626.5 1619.23 1610.16 1603.23 1600.29 1597.75 1595.37 1593.47 1591.64 1589.93 1588.5 1587.2 1585.05 1582.49 1579.05 1576.49 1574.34 1571.81 1568.7 1564.4 1561.21 1558.53 1557.38 1556.32 1555.4 1554.59 1553.81 1553.79 1553.27 1551.76 1550.51 1549.38 1548.13 1547.14 1546.65 1546.97 1547.72 1548.8 1549.39 1549.01 1550.49
3332.2 3328.77 3324.11 3326.91 3328.33 3327 3326.06 3325.3 3325.71 3326.01 3326.08 3322.46 3316.99 3315.49 3315.37 3318.02 3318.56 3318.03 3319.67 3321.3 3322.94 3322.84 3321.9 3326.18 3329.32 3330.22 3330.46 3330.39 3328.12 3327.46 3330.02 3329.96 3328.6 3333.43 3336.53 3336.19 3339.53 3344.77 3353.21 3359.14 3360.13 3364 3369.35 3375.7 3382.09 3388.62 3393.74 3398.19 3405.22 3412.4 3420.05 3426.72 3432.95 3441.65 3449.98 3457.7 3461.25 3462.76 3465.27 3469.11 3475.62 3479.05 3480.95 3482.17 3483.28 3484.19 3486.97 3490.73 3495.11 3499.63 3504.44 3503.79 3500.43 3508.23 3519.5 3537.8 3543.44 3542.76 3544.66 3546.11 3546.69 3536.4 3520.78 3522.88 3525.36 3528.62 3524.58 3516.89 3517.89 3519.09 3520.72 3523.5 3526.89 3536.81 3548.01 3561.9 3571.66 3579.44 3580.39 3578.35 3570.41 3572.57 3579.84 3583.79 3587.18 3589.48 3593.17 3597.58 3604.51 3609.8 3611.76 3605.66 3595.59 3594.63 3593.08 3590.28 3589.76 3590.39 3588.63 3589.6 3596.13 3594.54 3588.89 3585.01 3578.92 3568.35 3573.81 3587.38 3600.59 3609.18 3608.38 3602.59 3594.34 3622.14 3655 3698.16 3706.73 3697.8 3714.17 3722.76 3716.17 3716.08 3719.23 3717.63 3717.7 3720.99 3723.56 3725.8 3714.83 3705.04 3697.35 3693.51 3691.64 3701.96 3710.89 3717.08 3714.3 -999 -999 -999 -999 -999 -999 -999 -999 -999 -999 -999 -999 -999 -999 -999 -999 -999 -999 -999 -999 -999 -999 -999 -999 2023.1 2016.84 2015.44 2014.56 2014.64 2014.11 2013.24 2014.85 2019.29 2029.47 2037.17 2043.68 2053.98 2067.85 2089.35 2110.49 2131.98 2140.89 2151.49 2165.69 2172.44 2175.41 2180.57 2184.35 2185.29 2183.37 2180.04 2179.94 2181.46 2186.23 2189.33 2191.68 2195.23 2197.58 2197.64 2198.41 2199.54 2199.46 2198.44 2195.49 2193.57 2192.14 2188.11 2183.71 2178.35 2174.07 2170.26 2168.92 2165.98 2159.79 2156.33 2154.23 2152.41 2150.34 2147.75 2146.11 2144.93 2142.01 2139.06 2135.99 2133.07 2130.18 2121.94 2112.73 2101.36 2088.71 2075.39 2063.59 2053.24 2045.42 2043.51 2044.57 2044.91 2043.84 2039.89 2037.51 2035.87 2030.86 2025.37 2018.82 2013.03 2007.57 2000.98 1993.13 1982.58 1975.16 1969.23 1964.32 1958.53 1950.86 1941.63 1931.6 1919.26 1908.43 1900.23 1891.32 1882.03 1873.32 1864.75 1856.19 1848.49 1841.16 1834.09 1827.63 1822.16 1816.43 1810.53 1804.24 1799.25 1796.65 1794.52 1792.6 1785.39 1778.66 1772.7 1767.34 1762.25 1757.43 1752.79 1748.37 1742.93 1736.97 1735.4 1732.53 1727.03 1723.01 1719.7 1715.25 1710.39 1704.63 1700.42 1696.94 1692.55 1687.9 1682.62 1679.06 1676.33 1672.3 1668.99 1667.01 1664.98 1662.9 1662.34 1662.35 1663.5 1665.46 1667.84 1666.07 1664.41 1662.96 1661.11 1659.03 1657.33 1654.77 1650.48 1647.21 1644.42 1645.39 1646 1645.9 1644.82 1643.24 1640.07 1636.34 1631.43 1624.87 1617.49 1607.56 1600.17 1597.45 1595.39 1593.65 1591.87 1590.22 1588.82 1587.52 1586.27 1583.39 1580.53 1577.64 1575.27 1573.12 1570.6 1567.53 1563.27 1560.36 1558.09 1556.97 1555.92 1555.01 1554.09 1553.15 1552.93 1552.44 1551.41 1550.29 1549.1 1547.79 1546.63 1545.77 1545.6 1545.75 1546.75 1547.4 1547.36 1548.87
3330.58 3326.66 3321.88 3322.26 3322.77 3323.42 3321.88 3319.17 3319.73 3320.12 3320.17 3317.34 3313.07 3312.98 3313.56 3315.57 3315.39 3314.11 3315.74 3317.61 3319.99 3320.75 3320.71 3323.79 3326.4 3328.06 3328.21 3327.59 3326.45 3326.13 3327.49 3327.25 3326.22 3329.9 3332.39 3332.49 3336.46 3342.41 3351.17 3357.33 3358.37 3362.23 3367.55 3374.09 3380.18 3385.5 3389.74 3393.49 3401.84 3410.04 3418.1 3424.31 3429.63 3438.51 3446.9 3454.4 3458.77 3461.64 3462.89 3465.17 3469.59 3472.24 3474.05 3476.07 3477.35 3477.21 3479.58 3483.24 3485.84 3488.68 3492 3493 3492.91 3496.68 3502.46 3512.53 3518.65 3523.03 3525.01 3526.6 3527.42 3521.79 3513 3514.72 3516.39 3517.99 3515.23 3510.32 3511.23 3512.4 3514.14 3516.88 3520.16 3527.9 3537.61 3551.4 3560.24 3566.66 3568.67 3568.95 3565.69 3569.13 3575.9 3579.85 3582.57 3582.91 3585.72 3589.83 3593.18 3595.68 3596.42 3594.47 3591.27 3589.77 3587.95 3585.45 3586.07 3588.27 3588.47 3590.51 3596.36 3594.54 3588.89 3582.89 3577.63 3573.51 3577.19 3584.66 3592.39 3597.05 3595.42 3592.98 3590.21 3610.99 3632.78 3657.09 3665.94 3667.43 3700.68 3720.43 3713.1 3712.76 3715.92 3709.65 3706.74 3710.31 3713.24 3715.87 3701.89 3692.13 3690.18 3690.39 3691.64 3701.96 3709.85 3713 3711.22 -999 -999 -999 -999 -999 -999 -999 -999 -999 -999 -999 -999 -999 -999 -999 -999 -999 -999 -999 -999 -999 -999 -999 -999 2047.14 2032.99 2030.62 2027.87 2024.35 2022.08 2020.45 2022.01 2024.82 2030.31 2036.69 2043.68 2058.81 2074.57 2091.94 2118.34 2150.4 2158.09 2169.52 2188.65 2192.17 2187.64 2188.1 2189.43 2192.33 2191.13 2187.85 2185.63 2186.66 2194.09 2199.39 2203.65 2211.66 2216.92 2216.84 2217.54 2218.63 2218.87 2216.57 2209.28 2206.38 2205.69 2199.11 2191.42 2181.4 2175.4 2171.39 2168.7 2165.24 2160.11 2158.02 2157.43 2155.3 2152.99 2150.28 2148.57 2147.34 2144.17 2140.96 2137.56 2134.12 2130.61 2121.74 2112.21 2101.09 2087.45 2072.52 2061.6 2051.9 2044.32 2044.45 2048.47 2046.4 2044.28 2041.89 2039.23 2036.36 2031.9 2026.55 2019.35 2013.59 2008.51 2002.09 1994.15 1983.05 1975.85 1970.53 1966.25 1960.58 1952.06 1942.35 1932.03 1919.82 1908.9 1900.16 1891.24 1882.2 1872.79 1863.84 1855.48 1848.1 1841.16 1833.16 1826.02 1820.36 1814.51 1808.53 1802.22 1797.05 1794.03 1791.77 1789.87 1782.78 1776.13 1770.16 1764.85 1759.82 1755 1750.36 1745.95 1740.67 1734.92 1732.47 1729.14 1723.95 1720.42 1717.67 1712.66 1707.72 1702.78 1698.67 1694.94 1690.47 1685.78 1680.55 1676.95 1674.13 1669.88 1666.63 1665.27 1663.29 1660.97 1659.46 1658.75 1659.59 1661.12 1663.01 1662.64 1661.61 1659.3 1657.06 1654.83 1654.21 1652.65 1649.18 1645.62 1641.94 1641.41 1641.1 1641.16 1640.47 1639.39 1636.39 1633.25 1629.69 1624.11 1617.49 1606.62 1598.45 1595.26 1593.17 1591.61 1589.93 1588.54 1587.69 1586.63 1585.44 1581.69 1578.56 1576.57 1574.19 1571.58 1568.54 1565.43 1562.09 1559.68 1557.72 1556.77 1555.79 1554.7 1553.55 1552.36 1552.09 1551.72 1551.16 1550.13 1548.85 1547.56 1546.42 1545.53 1545.19 1545.11 1545.44 1545.84 1546.32 1547.7
3328.95 3324.56 3319.67 3317.68 3317.25 3319.91 3317.73 3313.12 3313.83 3314.31 3314.34 3312.3 3309.21 3310.48 3311.78 3313.14 3312.26 3310.24 3311.86 3313.96 3317.1 3318.69 3319.53 3321.43 3323.5 3325.95 3325.98 3324.82 3324.8 3324.84 3324.98 3324.57 3323.86 3326.42 3328.29 3328.84 3333.42 3340.08 3349.15 3355.54 3356.62 3360.48 3365.76 3372.49 3378.31 3382.4 3385.78 3388.85 3398.49 3407.7 3416.18 3421.92 3426.35 3435.41 3443.85 3451.13 3456.33 3460.53 3460.54 3461.31 3463.6 3465.51 3467.24 3470.04 3471.51 3470.32 3472.29 3475.85 3476.73 3477.92 3479.75 3482.4 3485.49 3485.33 3485.86 3487.75 3494.47 3503.71 3505.77 3507.49 3508.55 3507.47 3505.33 3506.69 3507.57 3507.51 3506.03 3503.84 3504.66 3505.81 3507.65 3510.36 3513.53 3519.14 3527.37 3541.06 3548.99 3554.1 3557.13 3559.62 3561.08 3565.72 3572 3575.97 3578.05 3576.39 3578.37 3582.19 3582.06 3581.82 3581.34 3583.5 3587.01 3584.96 3582.88 3580.68 3582.43 3586.17 3588.31 3591.42 3596.58 3594.54 3588.89 3580.8 3576.27 3578.72 3580.49 3581.96 3584.34 3585.12 3582.67 3583.56 3586.12 3600.06 3611.27 3617.07 3626.48 3637.84 3687.3 3718.13 3710.04 3709.48 3712.66 3701.82 3695.95 3699.8 3703.08 3706.09 3689.19 3679.35 3683.19 3687.32 3691.64 3701.96 3708.86 3708.93 3708.2 3707.05 3657.12 3610.6 3568.46 3511.13 -999 -999 -999 -999 -999 -999 -999 -999 -999 -999 -999 -999 -999 -999 -999 -999 -999 -999 -999 -999 -999 -999 -999 -999 -999 2027.64 2029.16 2030.39 2031.08 2036.22 2043.68 2063.6 2081.31 2094.45 2126.23 2168.97 2175.4 2187.61 -999 -999 2199.89 2195.64 2194.46 2199.37 2198.87 2195.65 2191.31 2191.79 2201.98 2209.45 2215.64 2228.13 2236.41 2236.18 2236.8 2237.86 2238.43 2234.87 2223.05 2219.21 2219.28 2210.13 2199.17 2184.37 2176.72 2172.51 2168.48 2164.48 2160.45 2159.71 2160.61 2158.17 2155.62 2152.79 2151.01 2149.73 2146.32 2142.84 2139.12 2135.16 2131.04 2121.55 2111.69 2100.83 2086.18 2069.68 2059.62 2050.57 2043.24 2045.4 2052.35 2047.9 2044.7 2043.9 2040.93 2036.85 2032.93 2027.73 2019.87 2014.15 2009.44 2003.19 1995.18 1983.5 1976.53 1971.82 1968.16 1962.62 1953.25 1943.06 1932.44 1920.37 1909.36 1900.08 1891.16 1882.36 1872.28 1862.94 1854.77 1847.71 1841.16 1832.25 1824.44 1818.58 1812.61 1806.55 1800.22 1794.9 1791.44 1789.05 1787.18 1780.21 1773.63 1767.65 1762.38 1757.43 1752.6 1747.96 1743.57 1738.43 1732.88 1729.59 1725.79 1720.92 1717.85 1715.66 1710.1 1705.07 1700.96 1696.95 1692.96 1688.41 1683.68 1678.51 1674.87 1671.95 1667.48 1664.29 1663.55 1661.61 1659.05 1656.63 1655.2 1655.74 1656.85 1658.26 1659.26 1658.87 1655.68 1653.06 1650.69 1651.12 1650.54 1647.91 1644.03 1639.5 1637.51 1636.27 1636.5 1636.19 1635.59 1632.76 1630.18 1628 1623.36 1617.49 1605.69 1596.75 1593.1 1590.97 1589.59 1588.01 1586.88 1586.59 1585.74 1584.61 1580.01 1576.61 1575.53 1573.13 1570.06 1566.51 1563.36 1560.93 1559.01 1557.34 1556.58 1555.66 1554.4 1553.02 1551.57 1551.25 1551.01 1550.91 1549.97 1548.59 1547.34 1546.21 1545.29 1544.78 1544.47 1544.15 1544.28 1545.31 1546.53
3322.92 3320.07 3317.46 3315.49 3314.37 3314.85 3312.84 3309.53 3309.8 3310.27 3311.16 3308.93 3305.14 3305.25 3306.05 3308.27 3308.59 3307.93 3310.24 3312.35 3314.04 3315.18 3316.02 3319.3 3322.07 3323.77 3323.98 3323.41 3323.44 3323.5 3323.61 3323.74 3323.86 3325.54 3326.97 3327.96 3331.7 3336.9 3344 3349.24 3350.91 3354.81 3359.89 3366.19 3372.58 3379.3 3384.44 3388.85 3397.14 3404.88 3411.6 3417.23 3422.35 3432.91 3442.58 3450.55 3456.41 3461.27 3461.08 3461.6 3463.54 3465.08 3466.43 3468.33 3469.41 3468.92 3470.59 3473.37 3474.03 3474.9 3476.22 3477.84 3479.66 3480.02 3481.45 3485.08 3492.97 3503.11 3503.07 3503.13 3503.41 3503.75 3504.07 3503.95 3503.77 3503.54 3502.91 3502.07 3503.13 3504.38 3506 3508.48 3511.42 3516.04 3522.3 3531.9 3537.78 3541.79 3544.81 3548.15 3552.25 3557.09 3562.42 3566.47 3569.31 3569.83 3572.32 3575.86 3573.65 3572.45 3573.33 3575.64 3578.72 3577.74 3576.71 3575.58 3576.81 3579.28 3585.09 3590.78 3596.25 3595.11 3590.66 3581.51 3576.27 3578.72 3579.93 3580.54 3583.77 3585.91 3585.92 3586.87 3588.36 3602.27 3611.78 3612.34 3613.74 3615.63 3645.49 3667.29 3673.51 3680.91 3689.09 3683.31 3680.81 3684.65 3688.5 3692.38 3683.72 3679.08 3682.09 3686.15 3690.77 3701.61 3708.86 3708.93 3705.15 3699.49 3652.17 3607.99 3567.84 3513.68 -999 -999 -999 -999 -999 -999 -999 -999 -999 -999 -999 -999 -999 -999 -999 -999 -999 -999 -999 -999 -999 -999 -999 -999 -999 2050.35 2052.1 2051.26 2045.04 2046.86 2052.68 2067.27 2081.31 2094.45 2126.23 2168.97 2193.38 -999 -999 -999 2228.12 2215.87 2207.41 2206.19 2205.35 2204.55 2206.6 2212.26 2225.23 2234.52 2242.07 2253.21 2260.89 2261.72 2262.17 2262.47 2261.67 2258.53 2250.81 2247.71 2246.94 2234.18 2219.66 2201.3 2188.53 2178.45 2179.76 2178.92 2173.6 2168.86 2164.42 2162.64 2161.49 2161.63 2163.45 2166.11 2162.41 2158.48 2154.02 2145.63 2135.36 2126.82 2119.7 2115.35 2099.8 2078.99 2068.94 2058.99 2048.87 2048.25 2052.35 2047.9 2044.19 2041.81 2038.61 2034.95 2031.39 2026.95 2020.72 2014.97 2009.44 2003.24 1995.52 1984.66 1978.34 1974.21 1970.1 1964.31 1955.11 1944.59 1933.39 1920.75 1909.42 1900.3 1891.03 1881.64 1871.99 1862.67 1853.67 1846.34 1839.76 1831.05 1823.33 1817.32 1811.12 1804.78 1798.38 1792.99 1789.45 1786.07 1782.74 1777.28 1771.74 1765.85 1760.79 1756.1 1750.85 1745.92 1741.51 1736.76 1731.82 1728.52 1724.93 1720.71 1717.1 1713.8 1708.21 1703.17 1699.11 1695.13 1691.17 1687.34 1683.06 1677.75 1673.42 1669.56 1664.93 1661.58 1660.71 1659.34 1657.71 1655.22 1653.35 1652.65 1653.1 1654.13 1655.15 1655.31 1653.79 1651.68 1649.28 1647.8 1645.71 1642.4 1638.81 1635.05 1633.22 1631.8 1631.13 1630.07 1628.8 1625.85 1623.51 1622.35 1618.41 1613.09 1602.55 1594.69 1591.82 1590 1588.69 1587.18 1585.96 1585.27 1584.33 1583.24 1578.94 1575.52 1573.73 1571.71 1569.54 1566.28 1563.36 1561.04 1559.12 1557.39 1556.6 1555.57 1554.07 1552.78 1551.57 1550.95 1550.46 1550.24 1549.43 1548.3 1547.07 1545.95 1545 1544.4 1543.97 1543.66 1543.58 1543.96 1544.83
3316.85 3315.53 3315.23 3313.28 3311.44 3309.79 3307.92 3305.91 3305.74 3306.21 3307.94 3305.53 3301.04 3299.98 3300.29 3303.36 3304.88 3305.6 3308.62 3310.71 3310.99 3311.63 3312.48 3317.17 3320.62 3321.59 3321.94 3321.98 3322.08 3322.16 3322.22 3322.89 3323.86 3324.65 3325.64 3327.06 3329.98 3333.69 3338.8 3342.92 3345.15 3349.11 3353.97 3359.86 3366.85 3376.15 3383.07 3388.85 3395.78 3402.01 3407.01 3412.51 3418.32 3430.39 3441.3 3449.95 3456.49 3462.02 3461.62 3461.89 3463.49 3464.65 3465.61 3466.59 3467.3 3467.5 3468.88 3470.86 3471.3 3471.85 3472.66 3473.26 3473.79 3474.67 3477.04 3482.37 3491.44 3502.5 3500.34 3498.73 3498.26 3499.98 3502.8 3501.17 3499.95 3499.54 3499.76 3500.28 3501.6 3502.94 3504.34 3506.59 3509.3 3512.92 3517.15 3522.76 3526.53 3529.46 3532.47 3536.67 3543.33 3548.43 3552.79 3556.93 3560.56 3563.19 3566.22 3569.48 3565.19 3563.07 3565.25 3567.74 3570.4 3570.48 3570.52 3570.43 3571.17 3572.35 3581.87 3590.14 3595.9 3595.68 3592.44 3582.22 3576.27 3578.72 3579.36 3579.11 3583.2 3586.74 3589.17 3590.23 3590.62 3604.51 3612.22 3607.65 3601.02 3593.48 3604.09 3617.52 3637.17 3652.47 3665.6 3664.84 3665.64 3669.47 3673.89 3678.65 3678.26 3678.8 3680.99 3684.96 3689.88 3701.25 3708.86 3708.93 3702.12 3691.89 3647.2 3605.39 3567.19 3516.24 -999 -999 -999 -999 -999 -999 -999 -999 -999 -999 -999 -999 -999 -999 -999 -999 -999 -999 -999 -999 -999 -999 -999 -999 -999 2073.81 2075.81 2072.68 2059.42 2057.73 2061.85 2070.96 2081.31 2094.45 2126.23 2168.97 2211.97 -999 -999 -999 2257.36 2236.62 2220.56 2213.2 2211.91 2213.63 2222.3 2233.35 2249.17 2260.41 2269.41 2279.09 2286.18 2288.09 2288.38 2287.87 2285.63 2282.99 2279.49 2277.24 2275.58 2258.99 2240.71 2218.71 2200.63 2184.48 2191.3 2193.68 2187.07 2178.2 2168.27 2167.17 2167.48 2170.58 2176.12 2182.91 2178.89 2174.5 2169.28 2156.35 2139.74 2132.17 2127.95 2130.12 2113.75 2088.48 2078.44 2067.53 2054.62 2051.14 2052.35 2047.9 2043.65 2039.72 2036.28 2033.04 2029.83 2026.18 2021.55 2015.79 2009.44 2003.29 1995.89 1985.82 1980.16 1976.62 1972.05 1966.02 1957 1946.13 1934.34 1921.12 1909.48 1900.52 1890.9 1880.91 1871.7 1862.38 1852.57 1844.95 1838.36 1829.84 1822.21 1816.06 1809.62 1802.99 1796.53 1791.07 1787.46 1783.07 1778.28 1774.34 1769.83 1764.04 1759.19 1754.77 1749.09 1743.87 1739.43 1735.09 1730.74 1727.44 1724.07 1720.49 1716.35 1711.91 1706.29 1701.26 1697.25 1693.31 1689.37 1686.27 1682.42 1676.99 1671.98 1667.15 1662.35 1658.85 1657.85 1657.06 1656.35 1653.8 1651.47 1649.55 1649.34 1649.98 1651.02 1651.75 1651.86 1650.29 1647.86 1644.45 1640.86 1636.87 1633.58 1630.59 1628.92 1627.3 1625.74 1623.94 1622 1618.93 1616.85 1616.67 1613.44 1608.68 1599.4 1592.63 1590.52 1589.01 1587.79 1586.34 1585.02 1583.94 1582.9 1581.86 1577.87 1574.41 1571.93 1570.28 1569.02 1566.05 1563.36 1561.16 1559.24 1557.44 1556.62 1555.49 1553.74 1552.52 1551.57 1550.64 1549.9 1549.57 1548.88 1548.01 1546.81 1545.69 1544.7 1544.01 1543.46 1543.16 1542.87 1542.62 1543.11
3312.68 3311.98 3312.49 3311.55 3310.01 3307.28 3304.88 3302.6 3301.89 3302.03 3303.84 3301.92 3298.14 3297.03 3297.34 3300.52 3302.31 3303.42 3306.35 3308.27 3308.19 3309 3310.27 3315.18 3318.66 3319.28 3319.73 3320.12 3320.2 3320.29 3320.4 3321.41 3322.88 3323.39 3324.31 3326.11 3328.63 3331.53 3335.26 3338.58 3341.09 3345.14 3349.99 3355.74 3363.01 3373.47 3381.36 3388.05 3394.12 3399.62 3404.08 3409.81 3416.26 3429.13 3440.8 3450.2 3456.47 3461.2 3461.09 3461.58 3463.28 3464.39 3465.22 3465.56 3465.98 3466.53 3467.71 3469.21 3469.57 3469.96 3470.44 3470.58 3470.56 3471.75 3474.63 3480.99 3489.72 3499.73 3497.42 3495.68 3495.06 3497.32 3501.05 3499.09 3497.7 3497.47 3498.2 3499.43 3500.96 3502.4 3503.69 3505.77 3508.26 3511.31 3514.36 3517.47 3520 3522.27 3525.08 3529.44 3536.98 3541.98 3545.75 3549.71 3553.35 3556.4 3559.48 3562.6 3558.71 3557.33 3561.03 3563.88 3566.35 3567.02 3567.71 3568.47 3568.86 3569.06 3578.29 3586.43 3592.4 3592.96 3590.83 3581.59 3576.16 3578.25 3579.46 3580.27 3584.75 3588.7 3591.63 3592.28 3591.79 3605.63 3612.05 3603.54 3593.48 3582.61 3582.29 3589.13 3610.4 3627.99 3643.88 3648.03 3652.51 3657.92 3663.98 3670.5 3675.37 3679.48 3682.19 3685.63 3689.45 3700.97 3711.99 3722.4 3716.81 3703.35 3651.45 3605.32 3567.55 3522.49 -999 -999 -999 -999 -999 -999 -999 -999 -999 -999 -999 -999 -999 -999 -999 -999 -999 -999 -999 -999 -999 -999 -999 -999 -999 -999 -999 -999 -999 -999 -999 -999 -999 -999 -999 -999 -999 -999 -999 -999 -999 -999 2243.13 2233.62 -999 -999 -999 -999 -999 -999 -999 -999 -999 2320.01 2318.6 2317.53 2315.54 2313.77 2312.46 2310.04 2307.03 2284.81 2263.8 2244.25 -999 -999 -999 -999 -999 -999 -999 2180.32 2176.61 2182.49 2191.43 2202.14 2203.33 -999 2195.08 -999 -999 2151.18 2145.72 2146.88 2129.99 2104.44 2095.71 2084.19 2066.91 2059.8 2057.54 2051.14 2045.23 2040.03 2037.18 2035.51 2032.65 2030.27 2028.82 2023.08 2015.19 2010.72 2003.82 1992.03 1984.7 1979.44 1974.33 1967.99 1959.07 1947.96 1935.73 1921.95 1909.98 1901.13 1891.29 1880.93 1871.78 1862.3 1851.9 1843.84 1836.84 1828.7 1821.28 1815.11 1808.53 1801.71 1795.05 1789.41 1785.63 1780.68 1775.12 1771.55 1767.3 1761.59 1756.73 1752.25 1746.89 1741.87 1737.46 1733.32 1729.29 1726.02 1722.78 1719.49 1715.01 1709.9 1704.29 1699.26 1695.24 1691.57 1688.05 1685.03 1681.19 1675.64 1670.49 1665.51 1660.39 1656.49 1654.91 1654.13 1653.74 1651.2 1648.69 1646.15 1645.55 1645.91 1646.74 1647.39 1647.65 1646.26 1644.04 1639.74 1635.64 1631.84 1628.49 1625.32 1623.72 1622.02 1620.06 1617.76 1615.26 1612.21 1610.33 1610.73 1608.06 1603.84 1596.14 1590.54 1588.98 1587.71 1586.58 1585.25 1584 1582.88 1581.84 1580.83 1577.06 1573.6 1570.69 1569.07 1568.07 1565.53 1563.11 1560.91 1559.02 1557.28 1556.45 1555.31 1553.54 1552.31 1551.34 1550.3 1549.46 1549 1548.42 1547.76 1546.55 1545.38 1544.23 1543.54 1543.08 1542.79 1542.38 1541.73 1541.73
3310.32 3309.34 3309.2 3310.24 3310.01 3307.28 3303.66 3299.54 3298.18 3297.66 3298.78 3298.04 3296.4 3296.34 3297.13 3299.68 3300.86 3301.35 3303.41 3304.99 3305.62 3307.22 3309.33 3313.29 3316.14 3316.79 3317.31 3317.77 3317.76 3317.85 3318.11 3319.27 3320.89 3321.73 3322.99 3325.09 3327.62 3330.38 3333.34 3336.13 3338.64 3342.8 3347.84 3353.74 3361.01 3371.2 3379.3 3386.45 3392.15 3397.64 3402.77 3409.11 3416.13 3429.07 3441.08 3451.29 3456.34 3458.8 3459.48 3460.67 3462.92 3464.31 3465.26 3465.25 3465.42 3465.98 3467.04 3468.36 3468.8 3469.19 3469.53 3469.74 3469.91 3471.16 3474.19 3480.88 3487.74 3494.73 3494.27 3493.91 3493.76 3495.73 3498.78 3497.64 3496.99 3497.3 3498.23 3499.49 3501.19 3502.74 3504.04 3506 3508.3 3511.2 3513.82 3515.95 3517.99 3520.02 3522.45 3526.28 3533.01 3537.58 3541.13 3544.63 3547.53 3549.31 3551.96 3555.1 3554.07 3555.14 3560.5 3563.96 3566.47 3567.25 3568.23 3569.63 3569.79 3569.33 3574.29 3579.62 3585.68 3586.94 3585.8 3579.59 3575.92 3577.32 3580.25 3584.04 3588.44 3591.83 3593.31 3593.03 3591.88 3605.67 3611.15 3600.05 3590.85 3582.61 3579.16 3580.65 3592.23 3606.88 3623.45 3632.41 3641.15 3649.66 3658.53 3667.7 3674.87 3681.14 3685.72 3688.14 3689.45 3700.75 3718.61 3749.61 3749.9 3734.46 3665.19 3607.8 3568.94 3532.78 -999 -999 -999 -999 -999 -999 -999 -999 -999 -999 -999 -999 -999 -999 -999 -999 -999 -999 -999 -999 -999 -999 -999 -999 -999 -999 -999 -999 -999 -999 -999 -999 -999 -999 -999 -999 -999 -999 2380.7 2378.05 -999 -999 2276.1 2268.67 -999 -999 -999 -999 -999 -999 -999 -999 -999 2358.7 2353.74 2352.37 2352.46 2352.04 2350.69 2347.02 2342.14 2312.34 2289.6 2278.91 -999 -999 -999 -999 -999 -999 -999 2202.83 2189.2 2197.61 2209.86 2224.32 2236.63 -999 2232.73 -999 -999 2185 2173.84 2166.06 2148.94 2127.5 2121.47 2109.59 2086.33 2074.48 2068.11 2057.76 2048.94 2042.76 2041.39 2042.43 2039.93 2039.41 2042.73 2037.09 2026.9 2025.8 2019.62 2003.55 1992.05 1982.71 1976.99 1970.26 1961.38 1950.09 1937.6 1923.27 1910.95 1902.12 1892.2 1881.7 1872.22 1862.41 1851.68 1842.97 1835.2 1827.57 1820.53 1814.44 1807.83 1800.91 1793.92 1787.98 1783.95 1778.84 1773.17 1768.84 1764.1 1758.46 1753.36 1748.5 1744.2 1739.9 1735.54 1731.44 1727.43 1724.24 1721.02 1717.68 1713.04 1707.72 1702.16 1697.14 1693.04 1689.89 1687.2 1683.59 1679.33 1673.69 1668.94 1664.59 1659 1654.45 1651.85 1650.52 1649.82 1647.38 1644.93 1642.4 1641.67 1641.82 1642.24 1642.16 1641.11 1639.56 1637.78 1633.62 1629.97 1627.18 1623.44 1619.15 1617.54 1615.86 1613.99 1611.4 1608.42 1605.55 1603.84 1604.41 1602.16 1598.5 1592.68 1588.41 1587.16 1586.07 1585.04 1583.88 1582.86 1582.06 1581.14 1580.13 1576.5 1573.08 1570.01 1568.08 1566.69 1564.69 1562.6 1560.29 1558.48 1556.9 1556.09 1555.03 1553.46 1552.13 1550.89 1549.93 1549.1 1548.54 1548.03 1547.55 1546.3 1545 1543.58 1542.99 1542.83 1542.54 1542.07 1541.27 1540.67
3307.99 3306.73 3305.95 3308.93 3310.01 3307.28 3302.44 3296.51 3294.52 3293.34 3293.77 3294.21 3294.67 3295.64 3296.92 3298.84 3299.41 3299.31 3300.5 3301.73 3303.08 3305.46 3308.4 3311.42 3313.66 3314.33 3314.91 3315.45 3315.36 3315.44 3315.85 3317.16 3318.93 3320.1 3321.67 3324.08 3326.61 3329.23 3331.43 3333.72 3336.21 3340.48 3345.71 3351.75 3359.04 3368.94 3377.26 3384.87 3390.21 3395.67 3401.48 3408.41 3416 3429.02 3441.34 3452.37 3456.2 3456.44 3457.88 3459.77 3462.57 3464.22 3465.31 3464.93 3464.87 3465.44 3466.39 3467.53 3468.03 3468.43 3468.62 3468.92 3469.27 3470.57 3473.76 3480.77 3485.76 3489.8 3491.15 3492.15 3492.47 3494.15 3496.54 3496.21 3496.28 3497.14 3498.26 3499.54 3501.42 3503.09 3504.39 3506.22 3508.34 3511.09 3513.29 3514.44 3516 3517.79 3519.85 3523.17 3529.08 3533.24 3536.56 3539.61 3541.8 3542.3 3544.54 3547.69 3549.46 3552.96 3560.01 3564.03 3566.58 3567.48 3568.74 3570.78 3570.72 3569.6 3570.36 3572.9 3579.06 3581 3580.84 3577.6 3575.7 3576.39 3581.06 3587.78 3592.1 3594.96 3594.96 3593.77 3591.97 3605.7 3610.29 3596.56 3588.27 3582.61 3576.09 3572.41 3574.29 3586.23 3603.45 3617.04 3629.93 3641.55 3653.17 3664.94 3674.36 3682.76 3689.24 3690.61 3689.45 3700.53 3724.91 3777.23 3783.24 3765.78 3679.01 -999 -999 -999 3521.96 3491.62 -999 -999 -999 -999 -999 -999 -999 -999 -999 -999 -999 -999 -999 -999 -999 -999 -999 -999 3805.81 3753.41 3698.27 3635.6 -999 -999 -999 -999 -999 -999 -999 -999 -999 -999 -999 -999 -999 -999 -999 2416.47 2414.11 -999 2309.69 2304.52 2319.86 -999 -999 -999 -999 -999 -999 -999 -999 -999 -999 -999 -999 -999 -999 -999 -999 -999 -999 -999 -999 -999 -999 -999 -999 -999 -999 -999 -999 -999 -999 -999 2270.55 2282.77 2271.27 2255.16 -999 -999 -999 -999 -999 -999 -999 -999 -999 2089.2 2078.67 2064.38 2052.63 2045.47 2045.58 2049.34 2047.19 2048.49 2056.75 2051.13 -999 2040.93 2035.57 2015.04 1999.36 1985.96 1979.63 1972.51 1963.67 1952.21 1939.45 1924.58 1911.92 1903.1 1893.1 1882.47 1872.66 1862.52 1851.45 1842.11 1833.57 1826.46 1819.78 1813.78 1807.13 1800.12 1792.8 1786.56 1782.27 1777.02 1771.25 1766.16 1760.95 1755.37 1750.04 1744.81 1741.54 1737.94 1733.64 1729.57 1725.59 1722.47 1719.28 1715.88 1711.09 1705.57 1700.06 1695.04 1690.86 1688.24 1686.36 1682.17 1677.49 1671.77 1667.41 1663.69 1657.64 1652.45 1648.82 1646.96 1645.96 1643.62 1641.24 1638.71 1637.84 1637.79 1637.81 1637.04 1634.66 1632.98 1631.63 1627.61 1624.38 1622.61 1618.46 1613.1 1611.47 1609.8 1608.03 1605.15 1601.72 1599.01 1597.46 1598.2 1596.37 1593.24 1589.25 1586.3 1585.37 1584.44 1583.51 1582.53 1581.72 1581.26 1580.44 1579.44 1575.95 1572.57 1569.34 1567.1 1565.33 1563.87 1562.1 1559.67 1557.94 1556.53 1555.73 1554.75 1553.4 1551.95 1550.44 1549.56 1548.76 1548.09 1547.66 1547.34 1546.05 1544.63 1542.93 1542.45 1542.58 1542.29 1541.78 1540.82 1539.61
3304.05 3303.89 3304.12 3306.29 3306.85 3304.24 3299.67 3294.09 3292.22 3291.08 3291.38 3292.04 3292.9 3294.43 3295.84 3297.01 3297.39 3297.39 3298.61 3299.89 3301.34 3303.57 3306.23 3308.62 3310.46 3311.23 3311.52 3311.59 3312.19 3312.71 3313.08 3314.53 3316.53 3318.72 3321.02 3323.53 3325.92 3328.28 3330.14 3332.5 3335.94 3340.51 3345.71 3351.17 3357.74 3366.62 3373.42 3379.24 3385.4 3391.83 3398.91 3406.31 3413.97 3428.46 3440.8 3448.78 3452.05 3452.95 3455.38 3458.18 3461.78 3463.69 3464.78 3464.72 3464.84 3465.33 3466.3 3467.53 3467.9 3468.21 3468.39 3468.78 3469.27 3470.57 3473.75 3480.74 3485.71 3489.72 3491.08 3492.08 3492.37 3493.73 3495.65 3496.03 3496.58 3497.43 3498.59 3499.91 3501.99 3503.78 3505.03 3506.98 3509.31 3511.24 3513.03 3514.63 3516.14 3517.62 3519.6 3522.35 3526.62 3530.05 3533.07 3536.63 3539.61 3541.51 3544.38 3547.77 3549.95 3553.3 3559.03 3562.88 3565.79 3567.88 3569.71 3571.02 3571 3570.3 3571.4 3573.17 3576.23 3578.52 3580.38 3577.62 3576.6 3579.05 3582.99 3587.78 3592.1 3595.62 3597.66 3595.77 3591.97 3604.05 3608.06 3596.02 3587.54 3580.8 3573.77 3567.43 3562.17 3567.58 3578.44 3586.79 3595.3 3604.38 3614.46 3625.15 3654.03 3701.54 -999 3785.04 3733.52 3764.11 3788.14 3797.02 3795.98 3789.24 3754.39 -999 -999 -999 -999 3541.33 -999 -999 -999 -999 -999 -999 -999 -999 -999 -999 -999 -999 -999 -999 -999 -999 -999 -999 3857.88 3806.89 3760.18 3720.07 -999 -999 -999 -999 -999 -999 -999 -999 -999 -999 -999 -999 -999 -999 -999 2428.76 2422.9 2379.52 2348.68 2339.11 2349.13 -999 2428.62 -999 -999 -999 -999 -999 -999 -999 -999 -999 -999 -999 -999 -999 -999 -999 -999 -999 -999 -999 -999 -999 -999 -999 -999 -999 -999 -999 -999 -999 2303.78 2308.34 2295.07 2291.37 -999 -999 -999 -999 -999 -999 -999 -999 -999 2116.78 2091.6 2079.54 2069.3 2062.26 2061.9 2064.88 2063.82 2065.37 2072.12 2078.5 -999 2071.53 2054.64 2030.04 2009.8 1991.64 1984.28 1976.36 1967.19 1954.83 1940.9 1926.53 1913.95 1904.39 1893.79 1882.63 1872.74 1862.48 1851.19 1841.65 1832.93 1825.67 1818.89 1812.88 1806.2 1799.15 1791.86 1785.2 1779.54 1774.19 1768.92 1764.34 1759.43 1753.74 1748.38 1743.13 1738.55 1734.09 1729.8 1725.74 1721.76 1719.67 1717.15 1713.7 1709.01 1703.67 1697.97 1692.83 1688.67 1686.09 1684.28 1680.09 1675.52 1670.08 1665.45 1661.21 1656.05 1651.64 1648.62 1646.28 1644.28 1641.89 1639.51 1637.08 1635.5 1634.34 1633.22 1631.35 1627.94 1625.68 1623.97 1619.78 1616.44 1614.71 1611.21 1606.79 1606.22 1605.18 1603.13 1601.2 1599.28 1596.6 1593.92 1591.08 1588.56 1586.13 1585.03 1584.26 1584.07 1583.44 1582.6 1581.64 1580.74 1579.92 1579.23 1578.58 1575.08 1571.65 1568.26 1566.07 1564.46 1562.59 1560.73 1558.89 1557.3 1555.85 1554.95 1553.9 1552.52 1551.1 1549.65 1549.07 1548.5 1547.93 1547.3 1546.64 1545.32 1544.04 1542.78 1542.13 1541.79 1541.49 1541 1540.1 1539
3300.05 3301.01 3302.27 3303.61 3303.67 3301.17 3296.87 3291.64 3289.89 3288.79 3288.96 3289.85 3291.11 3293.21 3294.74 3295.16 3295.36 3295.45 3296.7 3298.04 3299.59 3301.67 3304.04 3305.8 3307.24 3308.1 3308.11 3307.69 3308.99 3309.96 3310.28 3311.88 3314.12 3317.35 3320.36 3322.98 3325.22 3327.31 3328.83 3331.29 3335.66 3340.53 3345.71 3350.58 3356.41 3364.29 3369.56 3373.59 3380.57 3387.97 3396.3 3404.18 3411.93 3427.9 3440.21 3445.19 3447.87 3449.44 3452.87 3456.59 3460.97 3463.15 3464.25 3464.51 3464.82 3465.21 3466.21 3467.53 3467.77 3467.99 3468.16 3468.63 3469.27 3470.57 3473.74 3480.7 3485.65 3489.64 3491.01 3492.01 3492.26 3493.3 3494.76 3495.86 3496.87 3497.73 3498.92 3500.29 3502.57 3504.48 3505.68 3507.76 3510.28 3511.38 3512.78 3514.82 3516.27 3517.44 3519.35 3521.5 3524.17 3526.84 3529.54 3533.62 3537.42 3540.71 3544.21 3547.85 3550.45 3553.64 3558.06 3561.71 3565 3568.3 3570.69 3571.27 3571.28 3571.01 3572.45 3573.4 3573.43 3576.02 3579.92 3577.64 3577.53 3581.72 3584.96 3587.78 3592.1 3596.31 3600.36 3597.82 3591.97 3602.36 3605.82 3595.45 3586.82 3578.99 3571.42 3562.32 3550.11 3548.99 3553.53 3556.71 3560.97 3567.64 3576.2 3585.84 3633.86 -999 -999 -999 3779.11 3830.7 3853.61 3817.79 3808.86 3813.23 3834.09 -999 -999 -999 -999 3592.71 -999 -999 -999 -999 -999 -999 -999 -999 -999 -999 -999 -999 -999 -999 -999 -999 -999 -999 3911.93 3862.47 3825.18 3809.1 -999 -999 -999 -999 -999 -999 -999 -999 -999 -999 -999 -999 -999 -999 -999 2441.33 2431.83 2408.89 2389.36 2375.17 2379.5 2393.33 2438.58 -999 -999 -999 -999 -999 -999 -999 -999 -999 -999 -999 -999 -999 -999 -999 -999 -999 -999 -999 -999 -999 -999 -999 -999 -999 -999 -999 -999 -999 2338.26 2334.73 2319.64 2328.99 -999 -999 -999 -999 -999 -999 -999 -999 -999 -999 2104.83 2095.09 2086.42 2079.5 2078.64 2080.81 2080.9 2082.68 2087.9 2106.76 -999 -999 2074.22 2045.47 2020.48 1997.4 1988.98 1980.27 1970.76 1957.48 1942.37 1928.51 1916 1905.71 1894.49 1882.79 1872.83 1862.44 1850.93 1841.19 1832.27 1824.86 1817.98 1811.96 1805.25 1798.17 1790.91 1783.8 1776.81 1771.34 1766.57 1762.51 1757.9 1752.11 1746.7 1741.44 1735.54 1730.22 1725.94 1721.88 1717.92 1716.86 1715 1711.51 1706.91 1701.74 1695.86 1690.6 1686.46 1683.93 1682.18 1678 1673.53 1668.37 1663.48 1658.71 1654.45 1650.84 1648.42 1645.6 1642.58 1640.14 1637.76 1635.45 1633.15 1630.87 1628.61 1625.63 1621.22 1618.38 1616.3 1611.95 1608.51 1606.81 1603.95 1600.48 1600.97 1600.53 1598.22 1597.21 1596.82 1594.17 1590.3 1583.99 1580.75 1579.01 1580.81 1582.21 1582.76 1582.44 1581.68 1580.74 1579.74 1578.59 1578.01 1577.72 1574.21 1570.72 1567.17 1565.04 1563.59 1561.29 1559.36 1558.09 1556.67 1555.16 1554.16 1553.04 1551.64 1550.25 1548.85 1548.58 1548.25 1547.76 1546.93 1545.93 1544.59 1543.44 1542.63 1541.82 1541 1540.69 1540.21 1539.38 1538.38
3295.37 3297.38 3299.95 3301.28 3301.26 3298.59 3294.4 3289.42 3287.79 3286.81 3287.12 3288.03 3289.25 3291.01 3292.31 3292.68 3292.85 3292.91 3294.12 3295.45 3297.05 3299.23 3301.75 3303.36 3304.52 3304.78 3304.64 3304.3 3305.74 3306.83 3307.21 3309.18 3311.98 3315.65 3319.06 3322.02 3324.43 3326.6 3327.8 3330.18 3334.96 3339.97 3345.15 3349.89 3355.14 3361.5 3366.39 3370.61 3378.39 3386.49 3395.34 3403.61 3411.68 3426.87 3438.21 3441.78 3444.53 3446.91 3451.31 3455.8 3460.57 3462.88 3463.99 3464.09 3464.28 3464.64 3465.75 3467.24 3467.07 3467.04 3467.24 3467.94 3468.9 3470.39 3473.69 3480.68 3485.63 3489.61 3490.84 3491.77 3492.12 3493.06 3494.31 3495.56 3496.7 3497.63 3498.92 3500.41 3502.86 3504.88 3506.06 3508.14 3510.67 3511.67 3513.06 3515.3 3516.57 3517.35 3519.22 3521.12 3523.11 3525.46 3528.01 3532.22 3536.34 3540.37 3544.48 3548.69 3551.82 3555.21 3559.21 3562.71 3566 3569.39 3571.81 3572.3 3572.32 3572.1 3574.8 3576.34 3575.64 3578.24 3582.53 3581.58 3582.66 3587.87 3590.02 3590.61 3593.87 3597.62 3602.37 3600.28 3594.79 3601.59 3603.34 3594.87 3586.92 3579.19 3570.68 3560.14 3545.33 3541.48 3543.06 3543.79 3546.09 3551.61 3557.15 3562.68 3626.16 -999 -999 -999 -999 -999 -999 -999 -999 -999 -999 -999 -999 -999 -999 -999 -999 -999 -999 -999 -999 3543.52 3507.07 -999 -999 -999 -999 -999 3596.23 3607.66 3632.56 -999 -999 3953.01 3939.26 3931.27 -999 -999 -999 -999 -999 -999 -999 -999 -999 -999 -999 -999 -999 -999 -999 -999 -999 2466.78 2454.41 2432.33 2415.27 2407.04 2414.27 -999 -999 -999 -999 -999 -999 -999 -999 -999 -999 -999 -999 -999 -999 -999 -999 -999 -999 -999 -999 -999 -999 2469.5 2461.1 -999 -999 -999 -999 -999 -999 -999 -999 -999 -999 -999 -999 -999 -999 -999 -999 -999 -999 -999 -999 -999 -999 -999 -999 -999 -999 -999 -999 -999 -999 -999 -999 -999 2090.04 2057.94 2029.68 2003.29 1993.38 1983.5 1973.31 1959.68 1944.36 1930.88 1918.33 1907.12 1895.28 1883.08 1872.79 1862.17 1850.59 1840.75 1831.7 1824.18 1817.25 1811.29 1804.51 1797.29 1789.81 1782.39 1774.84 1769.11 1764.21 1760.62 1756.3 1750.47 1744.91 1739.45 1733.15 1727.56 1723.21 1718.96 1714.72 1713.34 1711.43 1708.41 1704.19 1699.37 1693.7 1688.63 1684.59 1681.68 1679.3 1675.44 1671.2 1666.12 1661.35 1656.72 1652.68 1649.25 1646.9 1644.05 1640.94 1638.44 1636.05 1633.81 1630.35 1626.23 1623.22 1619.55 1614.48 1611.57 1609.71 1605.88 1602.9 1601.57 1599.1 1596.04 1597.01 1596.84 1594.35 1593.33 1593.02 1589.39 1584.61 1577.4 1574.46 1573.63 1576.9 1579.4 1580.42 1580.7 1580.61 1579.72 1578.69 1577.38 1576.91 1576.84 1573.34 1569.86 1566.32 1564.27 1562.95 1560.45 1558.41 1557.25 1555.92 1554.51 1553.54 1552.42 1550.95 1549.4 1547.79 1547.39 1546.97 1546.5 1545.84 1545.08 1543.8 1542.79 1542.31 1541.4 1540.27 1539.88 1539.39 1538.68 1537.88
3289.89 3292.93 3297.13 3299.24 3299.59 3296.46 3292.21 3287.37 3285.87 3285.11 3285.81 3286.54 3287.28 3287.79 3288.49 3289.52 3289.81 3289.73 3290.83 3292.09 3293.68 3296.23 3299.3 3301.26 3302.21 3301.22 3301.06 3301.33 3302.37 3303.26 3303.81 3306.4 3310.06 3313.58 3317.09 3320.62 3323.52 3326.13 3327.02 3329.16 3333.83 3338.82 3344.03 3349.1 3353.88 3358.22 3363.84 3370.24 3378.81 3387.36 3396 3404.57 3413.22 3425.35 3434.72 3438.51 3441.97 3445.31 3450.67 3455.8 3460.57 3462.88 3463.99 3463.45 3463.23 3463.6 3464.89 3466.66 3465.79 3465.33 3465.63 3466.7 3468.16 3470.02 3473.59 3480.65 3485.63 3489.61 3490.56 3491.38 3491.92 3492.98 3494.31 3495.14 3496.05 3497.14 3498.6 3500.27 3502.86 3504.98 3506.18 3508.14 3510.49 3512.11 3513.9 3516.08 3517.03 3517.36 3519.22 3521.19 3523.44 3525.88 3528.44 3532.39 3536.37 3540.49 3545.21 3550.31 3554.07 3558.03 3562.5 3565.91 3568.82 3571.17 3573.1 3574.15 3574.14 3573.59 3578.49 3582.03 3582.94 3585.26 3588.28 3589.52 3592.14 3597.65 3598.24 3596.33 3597.47 3599.59 3603.69 3603.22 3600.5 3601.79 3600.6 3594.22 3587.85 3581.42 3571.57 3560.76 3547.75 3544.71 3546.58 3547.44 3549.84 3555.43 3556.25 3554.6 3630.3 -999 -999 -999 -999 -999 -999 -999 -999 -999 -999 -999 -999 -999 -999 -999 -999 -999 -999 -999 -999 3617.31 3582.75 -999 -999 -999 -999 -999 3604.71 3607.66 -999 -999 3932.72 3953.01 3939.26 4015.19 -999 -999 4106.44 -999 -999 -999 -999 -999 -999 -999 -999 -999 -999 -999 -999 -999 -999 2506.41 2491.87 2449.91 2426.1 2434.84 2454.55 -999 -999 -999 -999 -999 -999 -999 -999 -999 -999 -999 -999 -999 -999 -999 -999 -999 -999 -999 -999 -999 -999 2469.5 2461.1 -999 -999 -999 -999 -999 -999 -999 -999 -999 -999 -999 -999 -999 -999 -999 -999 -999 -999 -999 -999 -999 -999 -999 -999 -999 -999 -999 -999 -999 -999 -999 -999 -999 2102.16 2067.66 2037.47 2009.42 1997.6 1986.11 1974.9 1961.44 1946.89 1933.7 1920.95 1908.67 1896.16 1883.52 1872.64 1861.67 1850.17 1840.31 1831.21 1823.62 1816.68 1810.83 1803.94 1796.5 1788.55 1780.9 1773.61 1767.45 1761.8 1758.62 1754.59 1748.79 1742.99 1737.14 1731.34 1726.03 1721.56 1716.9 1712.09 1709.05 1706.39 1704.34 1700.8 1696.5 1691.47 1686.87 1683.01 1679.3 1675.61 1672.37 1668.49 1663.3 1659.02 1655.18 1650.72 1646.85 1644.04 1641.59 1639.3 1636.74 1634.33 1632.15 1627.01 1620.35 1616.97 1612.96 1607.6 1605.11 1604.03 1601.41 1599.46 1598.83 1596.53 1593.38 1594.26 1594 1591.43 1589.49 1587.82 1582.23 1576.74 1571.18 1569.55 1569.85 1573.18 1575.8 1577.03 1578.21 1579.39 1578.55 1577.58 1576.3 1575.89 1575.92 1572.45 1569.04 1565.68 1563.76 1562.53 1560.04 1557.88 1556.35 1555.06 1553.88 1553.07 1552.01 1550.45 1548.54 1546.45 1545.47 1544.64 1544.11 1543.99 1544.1 1542.94 1542.08 1541.81 1540.86 1539.58 1539.05 1538.53 1538 1537.5
3284.47 3288.56 3294.34 3297.22 3297.94 3294.35 3290.05 3285.35 3283.97 3283.42 3284.52 3285.06 3285.32 3284.62 3284.72 3286.41 3286.81 3286.58 3287.58 3288.76 3290.34 3293.26 3296.87 3299.18 3299.95 3297.68 3297.52 3298.4 3299.05 3299.72 3300.44 3303.66 3308.17 3311.53 3315.13 3319.25 3322.62 3325.66 3326.26 3328.16 3332.7 3337.68 3342.92 3348.31 3352.65 3354.95 3361.34 3369.87 3379.22 3388.23 3396.65 3405.52 3414.74 3423.88 3431.28 3435.28 3439.44 3443.72 3450.03 3455.8 3460.57 3462.88 3463.99 3462.83 3462.18 3462.56 3464.04 3466.08 3464.53 3463.64 3464.04 3465.47 3467.43 3469.65 3473.48 3480.62 3485.63 3489.61 3490.28 3490.98 3491.73 3492.91 3494.31 3494.72 3495.4 3496.65 3498.29 3500.13 3502.87 3505.09 3506.29 3508.13 3510.31 3512.54 3514.72 3516.85 3517.48 3517.38 3519.21 3521.26 3523.76 3526.29 3528.86 3532.56 3536.4 3540.6 3545.94 3551.91 3556.29 3560.83 3565.77 3569.08 3571.61 3572.95 3574.37 3575.99 3575.94 3575.07 3582.13 3587.67 3590.23 3592.24 3593.98 3597.4 3601.58 3607.39 3606.41 3602.02 3601.05 3601.55 3604.99 3606.15 3606.17 3602.02 3597.87 3593.6 3588.78 3583.63 3572.45 3561.36 3550.17 3547.92 3550.08 3551.06 3553.57 3559.22 3555.32 3546.63 3634.33 -999 -999 4397.52 4499.83 4623.34 4711.1 4717.59 4723.92 4730.26 4588.24 4475.66 4407.26 -999 -999 -999 -999 -999 -999 -999 -999 -999 -999 -999 3661.51 3629.53 3610.26 -999 -999 -999 -999 3990.51 3969.18 3953.01 -999 4101.33 4212.67 4201.97 4209.89 4227.29 4227.13 -999 -999 -999 -999 -999 -999 -999 -999 -999 -999 -999 -999 -999 -999 -999 -999 -999 -999 -999 -999 -999 -999 -999 -999 -999 -999 -999 -999 -999 -999 -999 -999 -999 -999 -999 -999 -999 -999 -999 -999 -999 -999 -999 -999 -999 -999 -999 -999 2506.73 2507.87 2504.49 2492.08 -999 -999 -999 -999 -999 -999 -999 -999 -999 -999 -999 -999 -999 -999 -999 -999 -999 -999 -999 -999 -999 -999 -999 -999 -999 2045.23 2015.53 2001.8 1988.71 1976.46 1963.2 1949.41 1936.49 1923.56 1910.2 1897.04 1883.94 1872.5 1861.18 1849.75 1839.88 1830.72 1823.06 1816.11 1810.39 1803.38 1795.71 1787.3 1779.43 1772.4 1765.81 1759.41 1756.65 1752.9 1747.14 1741.08 1734.85 1729.54 1724.52 1719.93 1714.85 1709.49 1704.85 1701.42 1700.34 1697.46 1693.67 1689.26 1685.13 1681.45 1676.94 1671.98 1669.33 1665.82 1660.51 1656.72 1653.66 1648.78 1644.48 1641.22 1639.16 1637.69 1635.06 1632.63 1630.51 1623.7 1614.56 1610.84 1606.5 1600.84 1598.77 1598.45 1597 1596.06 1596.13 1593.99 1590.74 1591.54 1591.19 1588.56 1585.69 1582.7 1575.22 1569 1565.1 1564.73 1566.12 1569.51 1572.24 1573.69 1575.76 1578.18 1577.4 1576.47 1575.23 1574.9 1575.02 1571.57 1568.24 1565.05 1563.25 1562.12 1559.63 1557.37 1555.47 1554.21 1553.27 1552.6 1551.61 1549.95 1547.69 1545.13 1543.58 1542.35 1541.75 1542.18 1543.13 1542.08 1541.37 1541.31 1540.33 1538.89 1538.23 1537.67 1537.32 1537.14
3279.56 3282.66 3287.29 3291.3 3293.38 3291.62 3288.31 3284.2 3282.79 3282.07 3282.71 3283.71 3284.87 3284.16 3284.23 3285.87 3285.97 3285.31 3286.04 3287.29 3289.66 3292.09 3294.61 3295.65 3296.04 3295.24 3295.54 3296.43 3297.1 3297.8 3298.58 3301.08 3304.48 3308.54 3312.7 3317.15 3320.93 3324.43 3325.39 3327.54 3332.1 3337.02 3342.18 3346.93 3351.22 3354.68 3361.25 3369.5 3379.38 3388.7 3397 3406.14 3415.81 3423.49 3430.17 3435.01 3439.44 3443.72 3449.09 3454.48 3460.03 3462.27 3462.88 3461.41 3460.57 3460.96 3462.39 3464.35 3463.36 3462.6 3462.23 3463.52 3465.64 3468.93 3473.47 3480.57 3485.66 3489.8 3490.25 3490.83 3491.7 3492.37 3492.96 3493.93 3495 3496.27 3497.91 3499.75 3502.56 3504.82 3506.02 3507.97 3510.31 3512.68 3514.9 3516.87 3517.87 3518.39 3520.23 3522.32 3524.95 3527.61 3530.3 3534.18 3538.25 3542.75 3547.78 3553.13 3557.67 3562.02 3566.06 3569.44 3572.51 3573.87 3575.2 3576.48 3578.49 3580.85 3587.51 3593.08 3596.6 3599.3 3601.63 3606.81 3611.18 3613.84 3613.49 3611.55 3610.74 3609.9 3608.86 3608.1 3607.44 3606.31 3603.42 3596.81 3589.23 3581.13 3569.36 3558.84 3550.6 3549.66 3552.4 3553.44 3555.95 3561.46 3558.68 3551.73 3648.89 -999 -999 4445.7 4562.25 4671.54 4747.63 4750.41 4746.47 4739.3 4640.05 4560 4510 4435.75 -999 -999 -999 -999 -999 -999 -999 -999 -999 -999 3767.81 3731.69 3714.67 -999 -999 -999 3896.48 3990.51 3969.18 3999.08 -999 4150.94 4212.67 4201.97 4209.89 4227.29 4227.13 -999 -999 -999 -999 -999 -999 -999 -999 -999 -999 -999 -999 -999 -999 -999 -999 -999 -999 -999 -999 -999 -999 -999 -999 -999 -999 -999 -999 -999 -999 -999 -999 -999 -999 -999 -999 -999 -999 -999 -999 -999 -999 -999 -999 -999 -999 -999 -999 2528.23 2516.48 2509.19 2511.28 -999 -999 -999 -999 -999 -999 -999 -999 -999 -999 -999 -999 -999 -999 -999 -999 -999 -999 -999 -999 -999 -999 -999 -999 -999 2052.45 2022.63 2007.15 1992.71 1979.82 1965.45 1950.34 1938.28 1925.67 1911.55 1897.54 1883.57 1871.48 1859.68 1848.08 1838.65 1830.22 1822.55 1815.53 1809.61 1802.5 1794.77 1786.58 1778.79 1771.55 1764.72 1758.06 1755.19 1751.4 1745.7 1739.59 1733.25 1727.35 1722.11 1718.06 1713.18 1707.87 1703.86 1700.55 1698.5 1695.51 1692.03 1687.78 1683.79 1680.22 1675.75 1670.8 1667.21 1663.33 1658.83 1655.02 1651.54 1647.1 1643.04 1639.61 1636.99 1634.76 1632.21 1629.5 1626.37 1620 1611.98 1608.01 1603.93 1599.55 1596.65 1594.51 1592.7 1591.47 1591.35 1590.34 1588.84 1587.38 1585.26 1581.83 1577.62 1573.01 1568.07 1564.17 1562.21 1562.78 1564.64 1568.91 1571.94 1572.45 1574.27 1576.76 1576.04 1575.2 1574.08 1573.5 1573.2 1570.26 1567.33 1564.35 1562.31 1560.74 1558.99 1557.21 1555.32 1553.73 1552.28 1551.12 1549.87 1548.45 1546.6 1544.51 1542.87 1541.57 1540.92 1541.1 1541.72 1540.98 1540.45 1540.33 1539.51 1538.31 1537.82 1537.41 1537.19 1537.01
3274.62 3276.72 3280.2 3285.35 3288.8 3288.84 3286.55 3283.04 3281.6 3280.71 3280.9 3282.34 3284.41 3283.68 3283.73 3285.33 3285.12 3284.02 3284.48 3285.82 3288.97 3290.93 3292.32 3292.08 3292.13 3292.75 3293.56 3294.44 3295.14 3295.87 3296.7 3298.48 3300.77 3305.52 3310.26 3315.03 3319.23 3323.18 3324.52 3326.92 3331.49 3336.36 3341.44 3345.54 3349.78 3354.38 3361.16 3369.12 3379.54 3389.18 3397.35 3406.76 3416.9 3423.09 3429.06 3434.72 3439.44 3443.72 3448.14 3453.15 3459.49 3461.65 3461.75 3459.98 3458.93 3459.35 3460.73 3462.62 3462.19 3461.53 3460.41 3461.55 3463.83 3468.21 3473.46 3480.51 3485.7 3490 3490.21 3490.68 3491.66 3491.83 3491.61 3493.14 3494.59 3495.88 3497.53 3499.36 3502.24 3504.55 3505.74 3507.8 3510.31 3512.82 3515.08 3516.89 3518.25 3519.41 3521.26 3523.4 3526.16 3528.94 3531.76 3535.83 3540.12 3544.93 3549.64 3554.37 3559.06 3563.22 3566.37 3569.81 3573.42 3574.8 3576.03 3576.98 3581.05 3586.7 3592.95 3598.58 3603.04 3606.46 3609.38 3616.38 3620.88 3620.41 3620.65 3621.23 3620.58 3618.32 3612.83 3610.08 3608.72 3610.66 3609 3600.08 3589.71 3578.6 3566.24 3556.33 3550.98 3551.43 3554.75 3555.85 3558.36 3563.72 3562.07 3556.89 3663.76 -999 -999 4495.36 4627.07 4721.11 4785.04 4784.08 4769.55 4748.46 4693.87 4648.75 4618.44 4580.1 -999 -999 -999 -999 -999 -999 -999 -999 -999 -999 -999 3840.83 -999 -999 -999 -999 3962.56 3990.51 3969.18 4046.23 4179.14 4201.77 4212.67 4201.97 4209.89 4227.29 4227.13 -999 -999 -999 -999 -999 -999 -999 -999 -999 -999 -999 -999 -999 -999 -999 -999 -999 -999 -999 -999 -999 -999 -999 -999 -999 -999 -999 -999 -999 -999 -999 -999 -999 -999 -999 -999 -999 -999 -999 -999 -999 -999 -999 -999 -999 -999 -999 -999 2550.31 2525.14 2514.15 2530.78 -999 -999 -999 -999 -999 -999 -999 -999 -999 -999 -999 -999 -999 -999 -999 -999 -999 -999 -999 -999 -999 -999 -999 -999 -999 2059.78 2029.84 2012.57 1996.76 1983.24 1967.73 1951.28 1940.1 1927.79 1912.92 1898.06 1883.18 1870.45 1858.17 1846.4 1837.41 1829.71 1822.03 1814.94 1808.82 1801.61 1793.82 1785.85 1778.13 1770.7 1763.62 1756.69 1753.72 1749.89 1744.25 1738.1 1731.65 1725.14 1719.68 1716.16 1711.5 1706.24 1702.87 1699.65 1696.65 1693.55 1690.37 1686.29 1682.45 1678.98 1674.55 1669.62 1665.07 1660.83 1657.12 1653.3 1649.39 1645.4 1641.58 1638 1634.81 1631.8 1629.33 1626.33 1622.23 1616.27 1609.37 1605.16 1601.35 1598.23 1594.54 1590.54 1588.38 1586.85 1586.56 1586.65 1586.92 1583.18 1579.3 1575.1 1569.56 1563.35 1560.93 1559.34 1559.27 1560.81 1563.15 1568.32 1571.62 1571.21 1572.76 1575.32 1574.67 1573.91 1572.91 1572.1 1571.37 1568.94 1566.41 1563.64 1561.38 1559.35 1558.34 1557.06 1555.17 1553.25 1551.28 1549.61 1548.12 1546.94 1545.49 1543.88 1542.16 1540.79 1540.08 1540.03 1540.3 1539.86 1539.52 1539.35 1538.67 1537.73 1537.4 1537.15 1537.05 1536.89
3271.67 3273.01 3275.53 3280.48 3284.28 3285.8 3284.48 3281.75 3280.59 3279.74 3279.51 3280.99 3283.32 3283 3283.19 3284.4 3284.16 3283.2 3283.62 3284.93 3288.06 3289.66 3290.49 3289.6 3289.4 3290.59 3291.63 3292.6 3293.33 3294.1 3294.98 3296.41 3298.13 3303.15 3307.94 3312.35 3316.65 3320.94 3322.82 3325.57 3330.13 3335.01 3340.09 3344.33 3348.85 3354.05 3360.91 3368.7 3379.48 3389.49 3398.09 3407.41 3417.2 3422.79 3428.51 3434.59 3439.13 3442.93 3446.98 3451.86 3458.53 3460.47 3460.04 3458.44 3457.52 3457.97 3459.27 3461.01 3460.7 3460.1 3458.95 3459.82 3461.7 3466.34 3471.76 3478.83 3484.35 3489.15 3489.82 3490.6 3491.64 3491.56 3490.93 3492.75 3494.39 3495.69 3497.2 3498.83 3501.82 3504.22 3505.49 3507.68 3510.34 3512.9 3515.15 3516.82 3518.31 3519.72 3521.63 3523.79 3526.51 3529.31 3532.19 3536.45 3540.95 3546.02 3550.67 3555.17 3559.86 3564.02 3567.14 3570.7 3574.51 3576.22 3577.38 3577.46 3582.5 3590.1 3595.89 3601.35 3606.26 3610.32 3614.02 3621.59 3626.43 3625.86 3626.7 3628.25 3627.45 3624.81 3618.46 3614.85 3612.58 3614.1 3611.84 3601.88 3590.34 3577.96 3565.42 3555.71 3551.35 3550.81 3552.12 3554.08 3557.17 3562.62 3563.17 3561.33 3678.72 -999 -999 4545.99 4663.58 4745.28 4801.58 4803.25 4786.34 4760.33 4728.93 4705.32 4696.49 4682.03 4664.89 4641.78 4623.8 4615.11 4587.08 4549.61 4461.34 4371.96 -999 -999 -999 -999 -999 3976.26 4003.68 4029.36 4033.57 4030.96 4014.93 4099.92 4243.43 4227.02 4217.51 4221.8 4233.94 4250.39 4250.89 4270.95 4331.32 4348.06 -999 -999 -999 -999 -999 -999 -999 -999 -999 -999 -999 -999 -999 -999 -999 -999 -999 -999 -999 -999 -999 -999 -999 -999 -999 -999 -999 4641.8 4641.95 -999 -999 -999 -999 -999 -999 -999 -999 -999 -999 -999 -999 -999 -999 -999 -999 -999 -999 -999 -999 -999 -999 -999 -999 -999 -999 -999 -999 -999 -999 -999 -999 -999 -999 -999 -999 -999 -999 -999 -999 -999 -999 -999 -999 -999 -999 2037.71 2018.93 2002.16 1988.64 1972.21 1954.37 1943.11 1930.49 1914.83 1898.76 1882.45 1868.83 1856.05 1844.43 1835.47 1827.75 1820.6 1813.82 1807.59 1800.46 1792.86 1784.78 1776.92 1769.24 1762.32 1755.74 1752.36 1748.28 1742.72 1736.3 1729.41 1722.95 1717.57 1714.2 1709.5 1704.11 1701.06 1697.88 1694.38 1691.38 1688.61 1684.94 1681.3 1677.65 1673.02 1667.86 1663.1 1658.79 1655.24 1651.5 1647.62 1644.19 1640.52 1636.27 1632.62 1629.25 1626.76 1623.46 1618.47 1612.74 1606.6 1602.24 1598.5 1595.89 1592.19 1587.94 1585.99 1584.41 1583.51 1583.37 1583.59 1577.95 1572.87 1568.72 1563.55 1557.89 1557.15 1556.95 1557.84 1559.84 1562.42 1567.57 1570.87 1570.44 1571.57 1573.48 1573.09 1572.54 1571.68 1570.78 1569.86 1567.79 1565.55 1562.94 1560.64 1558.47 1557.95 1556.98 1555.1 1552.97 1550.69 1548.83 1547.25 1546.2 1544.82 1543.25 1541.51 1540.17 1539.61 1539.44 1539.46 1539.18 1538.93 1538.7 1538.08 1537.26 1536.98 1536.81 1536.87 1536.73
3270.64 3271.42 3273.18 3276.6 3279.76 3282.38 3282.07 3280.29 3279.72 3279.13 3278.54 3279.63 3281.59 3282.09 3282.58 3283.07 3283.07 3282.83 3283.44 3284.6 3286.93 3288.24 3289.08 3288.16 3287.83 3288.69 3289.73 3290.87 3291.64 3292.46 3293.4 3294.82 3296.51 3301.36 3305.69 3309.07 3313.15 3317.65 3320.25 3323.47 3328 3332.93 3338.13 3343.26 3348.4 3353.64 3360.49 3368.22 3379.2 3389.67 3399.22 3408.1 3416.72 3422.6 3428.51 3434.59 3438.49 3441.32 3445.59 3450.59 3457.14 3458.68 3457.72 3456.77 3456.3 3456.79 3457.98 3459.51 3458.85 3458.28 3457.82 3458.29 3459.21 3463.28 3468.34 3475.5 3481.6 3487.25 3489.07 3490.6 3491.64 3491.56 3490.93 3492.75 3494.39 3495.69 3496.93 3498.13 3501.27 3503.83 3505.28 3507.61 3510.41 3512.92 3515.11 3516.67 3518.04 3519.34 3521.34 3523.5 3526.02 3528.74 3531.59 3536.04 3540.75 3546.05 3550.89 3555.55 3560.09 3564.42 3568.4 3572.15 3575.82 3578.17 3579.27 3577.94 3582.9 3591.11 3596.36 3601.45 3606.28 3610.95 3615.6 3622.49 3627.9 3630.29 3631.75 3632.72 3631.45 3629.47 3625.91 3622.51 3619.1 3616.7 3611.93 3602.25 3591.11 3579.18 3566.87 3556.99 3551.68 3547.78 3544.5 3548.09 3552.38 3558.15 3562.06 3565.13 3693.85 -999 -999 4598.32 4671.12 4743.98 4797.2 4807.87 4796.93 4775.17 4744.6 4728.98 4741.83 4737.92 4725.42 4696.13 4670.62 4651.8 4622.36 4587.9 4538.57 4484.13 4418.18 -999 -999 -999 4073.28 4069.89 4083.24 4105.7 4112.43 4115.36 4110.46 4161.86 4243.43 4227.02 4227.71 4262.02 4283.33 4297.82 4299.67 4310.78 4341.73 4348.06 -999 -999 -999 -999 -999 -999 -999 -999 -999 -999 -999 -999 -999 -999 -999 -999 -999 -999 -999 -999 -999 -999 -999 -999 -999 -999 -999 4739.06 4711.57 -999 -999 -999 -999 -999 -999 -999 -999 -999 -999 -999 -999 -999 -999 -999 -999 -999 -999 -999 -999 -999 -999 -999 -999 -999 -999 -999 -999 -999 -999 -999 -999 -999 -999 -999 -999 -999 -999 -999 -999 -999 -999 -999 -999 -999 -999 2046.39 2026.38 2009.05 1996.16 1978.97 1959.7 1947.38 1933.8 1917.33 1899.64 1881.36 1866.62 1853.28 1842.13 1832.8 1824.29 1818.24 1812.15 1805.88 1799.03 1791.87 1783.36 1775.13 1767.16 1760.79 1755.18 1751.09 1746.57 1741.07 1734.15 1726.5 1720.74 1715.74 1712.14 1707.15 1701.43 1698.37 1695.19 1691.67 1688.98 1686.69 1683.69 1680.33 1676.21 1671.11 1665.48 1661.28 1657.17 1653.15 1649.57 1646.19 1643.44 1639.8 1634.39 1630.38 1627.04 1624.43 1620.79 1615.05 1609.33 1603.61 1599.2 1595.34 1592.47 1589.56 1586.63 1585.47 1584.05 1582.13 1580.42 1578.79 1571.62 1565.84 1562.55 1559.44 1556.43 1556.57 1556.95 1557.84 1559.84 1562.42 1566.66 1569.65 1570.13 1570.67 1571.21 1571.26 1571.05 1570.34 1569.53 1568.66 1566.78 1564.71 1562.22 1560.08 1558.08 1557.79 1556.98 1555.1 1552.89 1550.5 1548.75 1547.25 1546.2 1544.55 1542.59 1540.89 1539.71 1539.49 1539.32 1539.17 1538.92 1538.66 1538.37 1537.72 1536.9 1536.55 1536.4 1536.62 1536.54
3269.63 3269.84 3270.86 3272.78 3275.28 3279.03 3279.7 3278.85 3278.85 3278.53 3277.56 3278.29 3279.88 3281.19 3281.98 3281.76 3281.99 3282.46 3283.26 3284.29 3285.8 3286.85 3287.69 3286.73 3286.27 3286.81 3287.85 3289.16 3289.97 3290.84 3291.83 3293.25 3294.9 3299.59 3303.48 3305.81 3309.7 3314.41 3317.71 3321.39 3325.89 3330.88 3336.18 3342.2 3347.95 3353.24 3360.07 3367.75 3378.92 3389.82 3400.35 3408.77 3416.24 3422.41 3428.51 3434.59 3437.85 3439.74 3444.23 3449.33 3455.76 3456.91 3455.41 3455.11 3455.09 3455.63 3456.69 3458.03 3457.04 3456.46 3456.71 3456.77 3456.75 3460.26 3464.97 3472.2 3478.88 3485.36 3488.31 3490.6 3491.64 3491.56 3490.93 3492.75 3494.39 3495.69 3496.65 3497.45 3500.72 3503.44 3505.07 3507.54 3510.47 3512.95 3515.07 3516.52 3517.78 3518.96 3521.06 3523.21 3525.53 3528.17 3531 3535.64 3540.54 3546.09 3551.11 3555.93 3560.31 3564.82 3569.65 3573.59 3577.11 3580.1 3581.16 3578.4 3583.29 3592.1 3596.84 3601.55 3606.31 3611.58 3617.17 3623.39 3629.31 3634.72 3636.77 3637.16 3635.43 3634.06 3633.35 3630.11 3625.58 3619.3 3612.02 3602.62 3591.87 3580.39 3568.31 3558.28 3551.99 3544.75 3536.98 3542.17 3547.64 3553.74 3560.99 3568.9 3708.88 -999 -999 4651.04 4678.61 4742.76 4792.76 4812.59 4807.5 4789.97 4760.22 4752.36 4787.88 4794.64 4786.93 4751.25 4718.07 4688.58 4657.86 4626.45 4617.46 4600.54 4567.68 4492.79 4399.34 4291.76 4209.09 4166.56 4165.17 4184.19 4193.61 4202.34 4209.82 4224.65 4243.43 4227.02 4237.48 4303.01 4333.38 4345.85 4349.09 4351.36 4351.7 4348.06 4342.39 4345.76 4347.38 4345.55 4342.95 4339.94 4342.32 -999 -999 -999 -999 -999 -999 -999 -999 -999 -999 -999 -999 -999 4618.29 4634.8 4686.94 4815.73 4850.39 4836.03 4849.98 4839.87 4782.23 4713.74 4640.62 4642.02 -999 -999 -999 -999 -999 -999 -999 4645.19 4654.75 4637.06 -999 -999 -999 -999 -999 -999 -999 -999 -999 -999 -999 -999 -999 -999 -999 -999 -999 -999 -999 -999 -999 -999 -999 -999 -999 -999 -999 -999 -999 -999 -999 -999 -999 -999 -999 2015.91 2003.67 1985.7 1965.01 1951.64 1937.09 1919.8 1900.51 1880.29 1864.44 1850.54 1839.86 1830.16 1820.88 1815.89 1810.5 1804.19 1797.62 1790.88 1781.97 1773.36 1765.1 1759.28 1754.62 1749.83 1744.87 1739.43 1732.03 1723.62 1718.55 1713.93 1710.11 1704.83 1698.79 1695.73 1692.53 1689 1686.62 1684.8 1682.45 1679.37 1674.78 1669.22 1663.13 1659.48 1655.58 1651.08 1647.67 1644.77 1642.68 1639.11 1632.53 1628.16 1624.86 1622.13 1618.17 1611.67 1605.98 1600.66 1596.21 1592.23 1589.1 1586.97 1585.33 1584.95 1583.71 1580.75 1577.5 1574.07 1565.42 1558.93 1556.49 1555.41 1554.99 1556 1556.95 1557.84 1559.84 1562.42 1565.76 1568.45 1569.84 1569.77 1568.96 1569.45 1569.59 1569.03 1568.29 1567.46 1565.78 1563.88 1561.52 1559.53 1557.7 1557.64 1556.98 1555.1 1552.81 1550.3 1548.67 1547.25 1546.2 1544.29 1541.93 1540.28 1539.24 1539.38 1539.21 1538.88 1538.66 1538.4 1538.04 1537.37 1536.55 1536.13 1535.98 1536.37 1536.35
3269.14 3269.28 3269.93 3271.27 3273.24 3276.51 3277.62 3277.64 3277.86 3277.82 3277.29 3277.68 3278.56 3279.61 3280.38 3280.62 3280.97 3281.38 3282.05 3282.99 3284.47 3285.5 3286.33 3286.07 3286.12 3286.77 3287.75 3288.91 3289.87 3290.63 3291 3292.51 3294.59 3298.67 3301.89 3303.44 3307.22 3312.15 3315.97 3320.07 3324.78 3329.73 3334.87 3340.95 3346.72 3351.97 3359.3 3367.75 3378.6 3389.52 3400.79 3409.19 3416.24 3422.41 3428.18 3433.24 3436.85 3439.74 3444.23 3448.76 3453.42 3454.14 3452.85 3452.76 3452.74 3452.85 3453.25 3453.81 3454.41 3454.96 3455.36 3456 3456.75 3459.76 3464.08 3471.15 3477.79 3484.3 3487.78 3490.13 3490.19 3490.44 3490.75 3492.68 3494.2 3494.92 3496.08 3497.46 3500.8 3503.44 3504.7 3506.9 3509.59 3512.48 3514.85 3516.24 3517.39 3518.42 3520.2 3522.09 3524.25 3526.99 3530.05 3534.94 3540.05 3545.66 3550.74 3555.61 3560.12 3564.76 3569.74 3574.16 3578.36 3581.33 3582.72 3580.99 3585.58 3593.42 3598.34 3603.07 3607.49 3612.33 3617.43 3623.59 3629.45 3634.82 3636.81 3637.12 3635.48 3633.86 3632.22 3628.94 3624.79 3620.84 3615.32 3606.51 3594.98 3582.07 3568.99 3557.66 3549.49 3544.05 3539.85 3543.33 3547.64 3553.74 3560.99 -999 -999 -999 -999 4634.74 4678.61 4742.76 4791.33 4806.68 4806.16 4797.5 4788.44 4788.59 4806.13 4804.34 4792.7 4755.12 4718.23 4681.25 4640.76 4598.65 4594.37 4579.38 4542.84 4484.49 4415.84 4352.91 4300.51 4264.45 4241.09 4224.39 4232.8 4240.84 4248.33 4262.01 4279.05 4270.5 4276.96 4312.87 4352.55 4394.13 4397.54 4399.39 4398.08 4393.76 4387.89 4390.3 4391.65 4390.98 4388.13 4384.19 4360.01 -999 -999 -999 -999 -999 -999 -999 -999 -999 -999 -999 -999 -999 4734.63 4773.33 4829.6 4921.6 4937.44 4913.92 4921.07 4915.11 4883.99 4801.76 4697.74 4699.58 -999 -999 -999 -999 -999 -999 -999 4814.33 4802.22 4772.45 -999 -999 -999 -999 -999 -999 -999 -999 -999 -999 -999 -999 -999 -999 -999 -999 -999 -999 -999 -999 -999 -999 -999 -999 -999 -999 -999 -999 -999 -999 -999 -999 -999 -999 -999 2020.19 2007.62 1990.18 1970.41 1957.07 1941.57 1921.38 1900.9 1880.29 1864.33 1849.96 1838.12 1827.81 1818.19 1812.16 1806.44 1801.25 1794.82 1787.77 1779.45 1771.2 1762.84 1757.1 1752.61 1747.95 1743.06 1737.58 1730.63 1722.92 1717.46 1712.58 1708.77 1703.46 1697.4 1694.22 1690.96 1687.47 1685.11 1683.3 1680.77 1677.73 1673.61 1667.91 1661.41 1657.86 1654.01 1649.46 1646.16 1643.45 1641.19 1637.45 1630.7 1625.66 1621.43 1618.31 1614.57 1609.55 1603.83 1597.74 1592.38 1588.23 1586.45 1584.7 1582.98 1581.64 1579.46 1575.56 1572.08 1568.76 1562.07 1557.28 1556.09 1555.41 1554.99 1556 1556.78 1557.13 1558.51 1560.41 1564.1 1567.03 1568.45 1568.37 1567.53 1568.07 1568.26 1567.79 1567.12 1566.35 1565.33 1563.88 1561.52 1559.53 1557.7 1556.94 1555.81 1553.92 1551.58 1549.01 1546.99 1545.27 1544.09 1542.67 1541.1 1539.63 1538.77 1539.09 1538.89 1538.43 1538.3 1538 1537.35 1536.65 1535.91 1535.78 1535.77 1535.96 1536.02
3268.63 3268.72 3268.99 3269.75 3271.17 3273.98 3275.52 3276.43 3276.86 3277.11 3277 3277.07 3277.23 3278.01 3278.77 3279.48 3279.94 3280.29 3280.83 3281.67 3283.13 3284.15 3284.96 3285.42 3285.98 3286.73 3287.65 3288.67 3289.77 3290.41 3290.17 3291.76 3294.28 3297.73 3300.27 3301.06 3304.73 3309.88 3314.23 3318.74 3323.65 3328.57 3333.55 3339.68 3345.47 3350.69 3358.52 3367.75 3378.27 3389.23 3401.24 3409.61 3416.24 3422.41 3427.84 3431.89 3435.83 3439.74 3444.23 3448.16 3451.09 3451.34 3450.27 3450.39 3450.36 3450.05 3449.78 3449.55 3451.77 3453.44 3454 3455.21 3456.75 3459.25 3463.18 3470.08 3476.69 3483.22 3487.26 3489.64 3488.74 3489.29 3490.57 3492.61 3494 3494.16 3495.51 3497.47 3500.88 3503.45 3504.34 3506.26 3508.71 3512 3514.63 3515.97 3517 3517.89 3519.33 3520.95 3522.96 3525.8 3529.08 3534.24 3539.55 3545.23 3550.37 3555.29 3559.94 3564.71 3569.82 3574.74 3579.61 3582.58 3584.31 3583.6 3587.89 3594.75 3599.85 3604.59 3608.69 3613.09 3617.69 3623.78 3629.59 3634.92 3636.84 3637.09 3635.53 3633.65 3631.1 3627.76 3623.99 3622.42 3618.67 3610.43 3598.13 3583.77 3569.66 3557.02 3546.99 3543.33 3542.77 3544.49 3547.64 3553.74 3560.99 -999 -999 -999 -999 4618.28 4678.61 4742.76 4789.83 4800.79 4804.74 4805.13 4817.42 4825.51 4824.95 4814.21 4798.53 4759.03 4718.3 4673.96 4623.69 4570.91 4571.31 4558.16 4518.08 4475.98 4432.63 4416.77 4397.06 4367.97 4320.86 4265.78 4273.11 4280.44 4287.95 4300.43 4315.64 4315.39 4317.17 4323.27 4371.89 4443.99 4447.58 4448.95 4445.95 4440.91 4434.81 4436.2 4437.29 4437.82 4434.72 4429.79 4377.85 -999 -999 -999 -999 -999 -999 -999 -999 -999 -999 -999 -999 -999 4858.21 4922.04 4982.17 5033.93 5028.62 4995.17 4994.97 4993.89 4990.85 4894.25 4756.87 4759.18 -999 -999 -999 -999 -999 -999 -999 4998.27 4960.93 4917.35 -999 -999 -999 -999 -999 -999 -999 -999 -999 -999 -999 -999 -999 -999 -999 -999 -999 -999 -999 -999 -999 -999 -999 -999 -999 -999 -999 -999 -999 -999 -999 -999 -999 -999 -999 2024.54 2011.63 1994.73 1975.9 1962.58 1946.08 1923.02 1901.31 1880.29 1864.21 1849.37 1836.38 1825.45 1815.47 1808.4 1802.38 1798.28 1792.01 1784.63 1776.91 1769.02 1760.55 1754.9 1750.59 1746.06 1741.24 1735.71 1729.22 1722.21 1716.35 1711.22 1707.41 1702.09 1695.99 1692.7 1689.39 1685.94 1683.59 1681.78 1679.09 1676.09 1672.43 1666.6 1659.68 1656.23 1652.42 1647.84 1644.64 1642.11 1639.68 1635.77 1628.87 1623.15 1617.99 1614.47 1610.97 1607.41 1601.66 1594.81 1588.52 1584.23 1583.77 1582.42 1580.6 1578.31 1575.18 1570.36 1566.64 1563.44 1558.71 1555.63 1555.67 1555.41 1554.99 1556 1556.6 1556.43 1557.17 1558.38 1562.42 1565.6 1567.05 1566.96 1566.1 1566.68 1566.93 1566.54 1565.93 1565.22 1564.88 1563.88 1561.52 1559.53 1557.7 1556.24 1554.63 1552.72 1550.34 1547.71 1545.3 1543.28 1541.98 1541.04 1540.27 1538.98 1538.29 1538.8 1538.58 1537.98 1537.94 1537.6 1536.66 1535.92 1535.28 1535.44 1535.54 1535.54 1535.67
3267.99 3268.12 3268.4 3268.87 3269.98 3272.4 3274.07 3275.38 3275.81 3276.16 3276.33 3276.44 3276.53 3277.1 3277.76 3278.61 3279.09 3279.4 3279.88 3280.69 3282.14 3283.16 3283.97 3284.78 3285.58 3286.39 3287.22 3288.07 3289.16 3289.81 3289.57 3291.16 3293.68 3296.8 3299.14 3299.97 3303.42 3308.21 3313.02 3317.88 3322.95 3327.92 3332.9 3338.94 3344.72 3350.03 3358.11 3367.69 3377.86 3388.78 3401.39 3409.78 3416.13 3422.18 3427.35 3430.8 3434.47 3438.27 3442.08 3445.03 3446.22 3446.55 3446.46 3447.12 3447.48 3447.25 3446.63 3445.8 3448.99 3451.45 3452.5 3454.09 3455.99 3457.62 3461.31 3469.2 3476.1 3482.6 3486.15 3488.3 3487.63 3488.6 3490.4 3492.54 3493.9 3493.69 3495.14 3497.44 3500.61 3502.93 3503.55 3505.55 3508.27 3511.49 3513.99 3515.08 3515.98 3516.8 3518.3 3520.01 3522.21 3525.2 3528.64 3533.83 3539.19 3544.95 3550.08 3554.94 3559.78 3564.72 3569.93 3575.09 3580.29 3583.31 3585.38 3585.62 3589.75 3595.88 3600.83 3605.57 3609.99 3614.15 3618.23 3624.21 3630.06 3635.78 3638.11 3638.78 3636.61 3634.18 3631.17 3628.82 3626.82 3626.09 3622.45 3612.9 3600.6 3586.9 3570.51 3556.24 3545.63 3542.95 3544.21 3545.06 3547.64 3553.74 3560.52 -999 -999 -999 -999 4605.85 4667.47 4729.95 4777.89 4795.09 4807.43 4817.71 4837.1 4846.79 4836.83 4820.88 4801.86 4759.42 4716.18 4669.79 4615.34 4557.3 4560 4547.76 4505.89 4467.62 4430.86 4437.46 4440.04 4435.07 4388.98 4324.08 4330.15 4345.71 4381.59 -999 -999 -999 -999 -999 -999 -999 -999 -999 -999 -999 -999 -999 4540.15 4527.03 4507.73 4484.66 4430.19 -999 -999 -999 -999 -999 -999 -999 -999 -999 -999 -999 4927.33 4960.93 4950.5 5021.32 5077.45 5101.5 5087.69 5055.2 5050.59 5049.97 5057.15 4973.17 4849.02 4849.88 4885.35 4993.57 5055.27 5092.83 5125.39 5145.79 5140.91 5113.96 5076.41 5017.75 4974.36 4958.1 4919.84 4871.52 4887.68 4887.09 4852.8 4756.93 4634.62 4578.4 -999 -999 -999 -999 -999 -999 -999 -999 -999 -999 -999 -999 -999 -999 -999 -999 -999 -999 -999 -999 -999 -999 -999 -999 -999 -999 -999 -999 -999 -999 -999 -999 -999 1880.95 1864.5 1848.9 1834.36 1822.76 1812.51 1804.83 1798.54 1794.79 1788.57 1781.1 1774.21 1766.82 1758.24 1752.65 1748.47 1744.25 1739.59 1733.94 1727.68 1721.07 1715.07 1709.86 1706.05 1700.88 1695.01 1691.41 1687.88 1684.43 1682.05 1680.18 1677.39 1674.34 1670.68 1664.88 1657.99 1654.59 1650.91 1646.63 1643.57 1641.11 1638.49 1634.4 1627.29 1621.15 1615.45 1611.59 1608.08 1605.17 1599.36 1592.1 1586.13 1582.15 1582.05 1580.5 1578.21 1575.21 1571.58 1566.59 1562.96 1560 1556.75 1554.58 1554.55 1554.72 1554.99 1556 1556.51 1556.08 1556.51 1557.38 1561.19 1564.2 1565.65 1565.57 1564.72 1565.73 1566.15 1565.42 1564.74 1564.09 1563.7 1562.72 1560.48 1558.51 1556.65 1554.58 1552.5 1550.33 1547.92 1545.38 1542.92 1540.96 1539.95 1539.52 1539.38 1538.31 1537.85 1538.61 1538.42 1537.75 1537.54 1537.04 1535.94 1535.3 1534.88 1535.08 1535.16 1535 1535.19
3267.21 3267.47 3268.15 3268.62 3269.62 3271.75 3273.26 3274.47 3274.71 3274.96 3275.26 3275.78 3276.43 3276.85 3277.35 3278.01 3278.41 3278.68 3279.19 3280.01 3281.48 3282.52 3283.36 3284.14 3284.92 3285.73 3286.44 3287.09 3288.05 3288.82 3289.19 3290.7 3292.77 3295.87 3298.48 3300.14 3303.25 3307.1 3312.31 3317.48 3322.66 3327.77 3332.9 3338.74 3344.44 3349.96 3358.06 3367.58 3377.36 3388.17 3401.23 3409.69 3415.9 3421.74 3426.69 3429.94 3432.73 3435.3 3437.77 3439.25 3438.79 3439.7 3441.37 3442.9 3444.03 3444.4 3443.71 3442.46 3445.99 3448.95 3450.8 3452.63 3454.45 3454.85 3458.45 3468.46 3476.02 3482.4 3484.45 3486.09 3486.84 3488.35 3490.23 3492.49 3493.87 3493.53 3494.99 3497.38 3499.99 3501.88 3502.33 3504.77 3508.27 3510.92 3512.91 3513.58 3514.34 3515.14 3517.07 3519.24 3521.96 3525.19 3528.71 3533.71 3538.97 3544.81 3549.86 3554.57 3559.65 3564.78 3570.08 3575.25 3580.4 3583.52 3585.96 3587.06 3591.17 3596.82 3601.28 3606.03 3611.4 3615.53 3619.06 3624.87 3630.89 3637.41 3640.63 3642.23 3638.74 3635.45 3632.46 3632.19 3633.33 3631.92 3626.72 3613.99 3602.45 3591.5 3571.59 3555.27 3545.38 3542.95 3544.21 3545.06 3547.64 3553.74 3559.55 -999 -999 -999 -999 4597.16 4645.12 4704.31 4755.59 4789.32 4814.49 4835.56 4847.51 4852.19 4842.14 4824.39 4802.73 4756.37 4711.77 4668.68 4615.34 4557.3 4560 4547.76 4505.89 4459.38 4410.55 4413.71 4427.72 4462.89 4445.44 4401.84 4406.44 4441.1 -999 -999 -999 -999 -999 -999 -999 -999 -999 -999 -999 -999 -999 -999 -999 4666.06 4610.89 4550.6 4520.65 -999 -999 -999 -999 -999 -999 -999 -999 -999 -999 -999 5036.61 5029.1 5009.44 5066.59 5109.54 5122.64 5113.5 5093.6 5087.86 5083.12 5080.54 5039.02 4979.96 4977.18 5007.23 5106.34 5152.74 5171.94 5188.74 5191.92 5167.9 5153.45 5144.28 5070.01 5016.31 4998.86 4988.57 4982.39 4999 4989.83 4930.31 4831.64 4717.14 4633.65 -999 -999 -999 -999 -999 -999 -999 -999 -999 -999 -999 -999 -999 -999 -999 -999 -999 -999 -999 -999 -999 -999 -999 -999 -999 -999 -999 -999 -999 -999 -999 -999 -999 1882.3 1865.19 1848.51 1832.07 1819.68 1809.23 1801.39 1794.86 1790.7 1784.45 1777.13 1771.29 1764.53 1755.86 1750.3 1746.23 1742.49 1738.08 1732.25 1725.98 1719.46 1713.59 1708.46 1704.66 1699.82 1694.44 1690.31 1686.43 1682.92 1680.44 1678.46 1675.65 1672.43 1668.34 1662.72 1656.32 1652.9 1649.45 1645.81 1642.93 1640.4 1637.61 1633.31 1625.94 1619.61 1613.75 1609.6 1605.85 1602.77 1596.87 1589.56 1585.12 1581.94 1581.23 1578.9 1575.75 1572.31 1568.57 1564.14 1560.96 1558.35 1556.09 1554.12 1552.72 1553.33 1554.99 1556 1556.51 1556.08 1556.51 1557.38 1560.36 1562.81 1564.21 1564.16 1563.37 1565.19 1565.89 1564.41 1563.52 1562.93 1561.78 1560.36 1558.39 1556.45 1554.52 1551.94 1549.36 1546.71 1544.3 1541.99 1539.82 1538.29 1537.98 1538.09 1538.41 1537.62 1537.44 1538.51 1538.42 1537.75 1537.11 1536.32 1535.18 1534.77 1534.73 1534.7 1534.6 1534.34 1534.57
