4025.81 4026.29 4026.49 4026.09 4025.77 4025.47 4025.15 4025.51 4027.23 4028.39 4029.26 4030.62 4031.54 4031.62 4031.65 4031.65 4031.94 4032.53 4033.77 4035.72 4038.05 4040.58 4043.42 4046.91 4049.44 4051.52 4055.18 4058.61 4061.68 4063.47 4064.63 4068.6 4071.82 4073.59 4075.88 4078.46 4076.42 4075.74 4077.77 4079.53 4081.17 4083.77 4085.7 4086.36 4087 4087.65 4088.22 4088.65 4088.78 4086.24 4082.34 4082.48 4082.44 4082.06 4081.48 4080.81 4080.72 4080.32 4079.28 4078.97 4079.02 4079.75 4080.43 4081.01 4080.8 4080.2 4078.59 4077.42 4077.05 4078.36 4080.55 4078.85 4077.67 4077.47 4077.37 4077.3 4077.06 4076.63 4075.78 4075.65 4075.87 4075.75 4076.01 4077.03 4077.92 4078.76 4079.7 4080.48 4080.97 4080.53 4079.62 4076.6 4074.71 4075.08 4075.78 4076.64 4077.23 4077.89 4078.67 4079.81 4081.14 4083.48 4085.54 4087.14 4087.98 4088.45 4088.96 4089.42 4089.83 4089.99 4090.03 4092.72 4094.2 4093.23 4090.17 4086.06 4086.42 4086.67 4086.7 4086.63 4086.52 4082.5 4079.09 4076.76 4074.24 4071.58 4067.2 4062.31 4056.29 4050.7 4045.27 4039.29 4032.95 4025.73 4016.92 4007.26 4002.13 3994.98 3983.69 3975.31 3968.33 3962.55 3953.01 3935.9 3927.58 3923.57 3923.34 3918.97 3906.37 3893.81 3881.29 3865.66 3854.76 3852.92 3852.58 3852.98 3855.35 3860.4 3870.91 3877.9 3883.1 3884.3 3886.41 3890.19 3889.15 3885.69 3889.37 3896.13 3909.26 3919.89 3929.35 3920.82 3915.72 3917.47 3913.63 3906.95 3902.22 3896.55 3888.79 3883.56 3879.51 3874.35 3870.53 3869.28 3868.68 3868.4 3864.02 3859.61 3855.03 3855.89 3859.49 3862.49 3864.54 3864.73 3870.24 3878.51 3896.13 3911.46 3922.22 3928.26 3931.99 3937.26 3943.88 3953.36 3960.47 3966.47 3967.17 3967.16 3965.71 3965.86 3966.82 3966.23 3966.76 3969.58 3973.84 3978.88 3982.77 3986.99 3991.93 3997.41 4003.23 4006.57 4011.13 4018.24 4029.52 4043.05 4054.88 4067.21 4080.71 4087.67 4091.4 4098.15 4107.3 4121.45 4130.53 4137.16 4137.21 4137.89 4139.8 4140.51 4140.62 4135.41 4132.5 4134.13 4135.44 4136.67 4139.22 4139.77 4136.18 4135.85 4137.16 4135.08 4134.35 4136.34 4141.54 4148.39 4150.42 4154.08 4161.09 4163.23 4162.94 4168.26 4171.07 4168.91 4168.63 4169.3 4170.26 4171.49 4173.29 4174.27 4174.87 4174.1 4174.34 4176.59 4177.87 4178.69 4181.66 4183.13 4181.58 4182.38 4184.37 4187.06 4189.46 4191.24 4193.08 4194.99 4198.71 4202.01 4204.56 4208.01 4211.91 4200.13 4191.26 4187.9 4183.15 4177.68 4175.8 4173.15 4168.98 4167.11 4166.4 4166.26 4166.53 4167.62 4168.87 4170.23 4173.59 4177.84 4183.97 4186.88 4188.19 4187.96 4194.36 4214.26 4219.86 4218.27 4205.76 4197.41 4197.1 4194.59 4190.97 4188.82 4186.75 4184.76 4177.02 4166.39 4162.74 4160.59 4161.43 4160.34 4158.26 4169.44 4176.85 4176.67 4168.29 4155.83 4151.64 4148.06 4145.68 4143.36 4141.04 4140.37 4139.79 4139.36 4137.77 4135.59 4135.04 4134.45 4133.78 4133.87 4134.35 4131.6 4130.25 4131.74 4134.32 4137.46 4143.26 4146.93 4146.34 4145.51 4144.56 4147.77 4150.29 4151.41 4150.99 4149.8 4149.85 4150.09 4150.76 4149.38 4146.99 4147.5 4146.23 4141.36 4134.68 4127.1 4126.88 4127.27 4128.87 4132 4135.91 4135.31 4135.16 4135.86 4134.23 4131.45 4132.64
4027.11 4027.59 4027.8 4027.49 4027.19 4026.89 4026.55 4026.91 4028.66 4029.82 4030.7 4032.2 4033.17 4033.1 4033.11 4033.15 4033.48 4034.1 4035.32 4037.28 4039.62 4042.12 4044.94 4048.45 4050.99 4053.08 4056.66 4060.05 4063.14 4064.91 4066.02 4070.02 4073.23 4074.95 4076.96 4079.13 4077.07 4076.39 4078.44 4080.45 4082.45 4084.68 4086.53 4087.62 4088.36 4088.92 4089.48 4089.86 4089.89 4087.29 4083.36 4084.17 4084.35 4083.32 4082.84 4082.65 4082.57 4082.23 4081.37 4081.16 4081.26 4082.14 4082.94 4083.58 4083.42 4082.86 4079.92 4077.87 4077.51 4079.87 4083.65 4081.15 4079.44 4079.22 4079.09 4078.99 4078.75 4078.07 4076.49 4076.59 4077.57 4076.72 4076.51 4077.51 4078.41 4079.25 4080.16 4080.93 4081.43 4081 4080.1 4078.63 4077.79 4078.24 4078.99 4079.9 4078.76 4078.28 4079.06 4080.21 4081.56 4085.68 4088.91 4090.48 4091.3 4091.76 4092.28 4092.71 4092.99 4093.16 4093.28 4094.66 4095.25 4094.25 4092.25 4089.75 4090.12 4090.52 4090.96 4090.91 4090.61 4085.86 4081.82 4079.07 4075.5 4071.46 4066.91 4062.27 4057.31 4051.59 4045.42 4039.41 4033.09 4025.98 4017.05 4007.15 4002.33 3996.11 3986.93 3980.23 3974.69 3971.68 3963.89 3946.55 3939.64 3937.86 3936.27 3934.41 3931.7 3925.03 3916.27 3902.18 3891.98 3889.27 3888.23 3888.02 3894.43 3898.8 3899.52 3902.24 3906.12 3898.64 3894.76 3897.72 3896.33 3892.76 3896.48 3903.02 3915.38 3923.76 3930.21 3924.88 3923.96 3931.77 3926.9 3915.54 3907.59 3898.88 3888.41 3882.17 3878.01 3873.61 3870.26 3868.94 3868.07 3867.4 3861.15 3855.87 3852.34 3853.81 3857.79 3860.35 3862.61 3864.23 3869.53 3876.7 3892.1 3906.22 3917.82 3924.56 3928.93 3935.19 3942.79 3953.24 3960.6 3966.47 3966.32 3965.86 3964.73 3964.77 3965.39 3965.53 3966.75 3970.18 3975.04 3980.68 3984.52 3988.65 3993.41 3999.16 4005.48 4008.67 4014.38 4025.2 4036.42 4047.92 4059.8 4071.82 4084.35 4091.87 4096.99 4105.25 4114.09 4124.37 4133.82 4143.06 4142.55 4142.06 4141.67 4142.18 4143.2 4136.43 4133.1 4136.47 4141.28 4146.91 4143.3 4140.46 4138.84 4138.44 4138.58 4137.73 4138.47 4142.4 4146.86 4151.59 4153.52 4157.1 4164.03 4166.04 4165.59 4169.72 4172.26 4171.6 4171.63 4171.97 4172.62 4173.62 4175.31 4176.28 4176.9 4175.58 4175.44 4177.63 4179.43 4181.06 4182.26 4182.87 4182.24 4182.97 4184.37 4183.35 4183.22 4184.77 4188.09 4192.37 4196.26 4200.01 4203.49 4204.5 4204.2 4191.25 4180.95 4175.64 4171.32 4167.52 4166.63 4166.17 4166.45 4166.05 4165.25 4165.49 4166.31 4168.26 4170 4171.63 4175.37 4179.64 4185.1 4187.93 4189.48 4189.67 4196.03 4215.01 4218.83 4215.04 4202.37 4193.75 4192.91 4191.04 4188.67 4186.3 4183.99 4181.75 4174.06 4163.63 4160.55 4159.13 4160.97 4160.27 4158.3 4165.71 4169.68 4166.76 4160.63 4152.95 4150.49 4148.06 4145.68 4143.36 4141.04 4140.37 4139.79 4139.36 4137.77 4135.59 4135.04 4134.45 4133.78 4133.87 4134.35 4134.12 4134.2 4134.99 4137.17 4140.07 4144.3 4146.93 4146.34 4146.05 4145.91 4146.56 4147.32 4148.23 4148.09 4147.43 4147.94 4148.84 4150.53 4150.18 4148.8 4148.55 4147.45 4144.53 4140.81 4136.69 4136.4 4136.41 4137.02 4138.93 4141.51 4141.14 4140.97 4141.23 4140.96 4140.45 4141.2
4028.4 4028.87 4029.11 4028.88 4028.6 4028.29 4027.94 4028.29 4030.07 4031.24 4032.13 4033.77 4034.79 4034.57 4034.55 4034.64 4035.01 4035.65 4036.86 4038.82 4041.17 4043.64 4046.45 4049.98 4052.53 4054.63 4058.12 4061.47 4064.59 4066.34 4067.4 4071.43 4074.64 4076.3 4078.01 4079.79 4077.72 4077.04 4079.11 4081.36 4083.72 4085.59 4087.34 4088.87 4089.7 4090.18 4090.72 4091.06 4090.98 4088.33 4084.38 4085.84 4086.25 4084.57 4084.2 4084.47 4084.4 4084.13 4083.45 4083.33 4083.48 4084.5 4085.42 4086.14 4086.02 4085.48 4081.24 4078.32 4077.96 4081.38 4086.73 4083.44 4081.19 4080.96 4080.79 4080.65 4080.43 4079.51 4077.18 4077.54 4079.24 4077.69 4077 4077.99 4078.88 4079.74 4080.62 4081.37 4081.88 4081.46 4080.58 4080.64 4080.84 4081.36 4082.17 4083.13 4080.29 4078.67 4079.44 4080.6 4081.97 4087.84 4092.25 4093.8 4094.6 4095.04 4095.57 4095.97 4096.12 4096.3 4096.51 4096.58 4096.29 4095.27 4094.32 4093.41 4093.79 4094.33 4095.2 4095.16 4094.66 4089.2 4084.54 4081.36 4076.73 4071.34 4066.63 4062.22 4058.33 4052.46 4045.58 4039.54 4033.23 4026.22 4017.17 4007.05 4002.52 3997.2 3990.18 3985.13 3981.02 3980.75 3974.72 3957.15 3951.66 3952.12 3949.15 3949.69 3957.23 3956.47 3951.55 3939.03 3929.58 3925.94 3924.19 3923.35 3933.9 3937.73 3928.14 3926.65 3929.18 3913 3903.07 3905.21 3903.47 3899.79 3903.56 3909.87 3921.45 3927.59 3931.05 3928.89 3932.08 3946.1 3940.09 3924.08 3912.95 3901.22 3888 3880.8 3876.51 3872.86 3869.99 3868.6 3867.45 3866.41 3858.32 3852.16 3849.7 3851.76 3856.11 3858.25 3860.68 3863.76 3868.81 3874.91 3888.13 3901.04 3913.48 3920.91 3925.9 3933.13 3941.7 3953.13 3960.72 3966.47 3965.49 3964.57 3963.77 3963.69 3963.97 3964.83 3966.74 3970.78 3976.23 3982.46 3986.26 3990.29 3994.89 4000.9 4007.71 4010.74 4017.57 4032.16 4043.27 4052.75 4064.67 4076.41 4087.94 4096.06 4102.54 4112.3 4120.88 4127.21 4137.1 4148.93 4147.86 4146.24 4143.48 4143.84 4145.75 4137.45 4133.67 4138.8 4147.1 4157.1 4147.38 4141.11 4141.52 4140.99 4139.98 4140.34 4142.53 4148.44 4152.13 4154.76 4156.6 4160.08 4166.94 4168.82 4168.21 4171.17 4173.42 4174.29 4174.59 4174.62 4174.97 4175.72 4177.31 4178.27 4178.92 4177.05 4176.53 4178.66 4180.98 4183.42 4182.87 4182.6 4182.91 4183.55 4184.37 4179.71 4177.07 4178.38 4183.17 4189.78 4193.85 4198.01 4202.45 4200.99 4196.59 4182.5 4170.81 4163.54 4159.69 4157.51 4157.59 4159.23 4164.01 4165 4164.11 4164.73 4166.08 4168.92 4171.12 4173.02 4177.13 4181.44 4186.22 4188.98 4190.75 4191.36 4197.7 4215.73 4217.79 4211.84 4199.03 4190.13 4188.75 4187.54 4186.39 4183.81 4181.27 4178.77 4171.13 4160.89 4158.39 4157.67 4160.52 4160.21 4158.33 4162.04 4162.63 4156.96 4153.1 4150.1 4149.35 4148.06 4145.68 4143.36 4141.04 4140.37 4139.79 4139.36 4137.77 4135.59 4135.04 4134.45 4133.78 4133.87 4134.35 4136.6 4138.13 4138.21 4140 4142.65 4145.34 4146.93 4146.34 4146.58 4147.25 4145.39 4144.39 4145.08 4145.22 4145.08 4146.05 4147.59 4150.32 4150.97 4150.59 4149.6 4148.64 4147.71 4146.93 4146.22 4145.87 4145.5 4145.1 4145.81 4147.07 4146.91 4146.75 4146.56 4147.65 4149.4 4149.71
4029.98 4030.44 4030.68 4030.47 4030.21 4029.92 4029.6 4029.97 4031.71 4032.86 4033.74 4035.42 4036.46 4036.2 4036.18 4036.28 4037.14 4037.94 4038.59 4040.35 4042.68 4045.22 4048.06 4051.57 4054.08 4056.13 4059.64 4063.01 4066.14 4067.89 4068.96 4072.99 4076.19 4077.79 4079.49 4081.25 4079.52 4078.94 4080.59 4082.73 4085.11 4087.4 4089.29 4090.42 4091.1 4091.56 4092.11 4092.46 4092.43 4090.13 4086.68 4087.64 4087.57 4085.41 4085.29 4086.19 4086.13 4085.89 4085.29 4085.22 4085.41 4086.57 4087.6 4088.37 4087.75 4086.44 4083.55 4081.56 4081.29 4083.83 4087.82 4086.05 4084.81 4084.58 4084.52 4084.55 4082.55 4080.66 4079.05 4079.16 4080.16 4079.4 4079.41 4080.91 4081.64 4081.99 4082.84 4083.57 4084.06 4083.65 4082.78 4082.07 4081.76 4082.28 4083.12 4084.14 4082.92 4082.43 4083.32 4084.53 4085.92 4090.09 4093.36 4094.9 4095.69 4096.11 4097.24 4098.03 4098.13 4098.26 4098.39 4098.42 4098.08 4096.98 4095.95 4094.96 4095.39 4096.24 4097.95 4098.07 4097.42 4093.24 4089.37 4086.01 4082.27 4078.28 4073.37 4067.99 4061.51 4053.91 4045.69 4039.81 4033.68 4026.9 4018.86 4010.12 4006.14 4002.17 3998.21 3995.6 3993.63 3992.32 3987.14 3974.3 3969.27 3968.13 3965.95 3966.24 3971.41 3970.52 3966.54 3955.38 3946.94 3943.64 3942.12 3941.47 3948.24 3950.82 3945.27 3942.92 3942.23 3925.17 3914.68 3916.96 3919.02 3920.92 3923.73 3926.94 3930.81 3933.86 3936.43 3934 3936.06 3947.08 3943.48 3932.46 3920.11 3907.23 3892.97 3884.7 3879.32 3876.32 3873.57 3871.21 3868.16 3864.77 3856.59 3850.73 3849.35 3850.88 3853.9 3856.28 3859.23 3863.41 3868.29 3873.6 3884.45 3895.76 3908.25 3915.94 3921.3 3930.09 3939.96 3952.13 3960.31 3966.58 3965.64 3964.85 3964.33 3963.96 3963.68 3966.98 3970.7 3975.26 3979.12 3982.72 3988.38 3993.58 3997.87 4002.63 4007.71 4012.4 4019.8 4032.71 4044.13 4054.88 4065.53 4076.7 4089.13 4097.48 4103.87 4113.35 4121.66 4127.71 4137.35 4148.93 4150.82 4150.83 4146.97 4144.73 4143.3 4138.12 4137.01 4143.96 4151.41 4159.25 4156.97 4156.8 4160.71 4163.39 4165.47 4164.03 4163.61 4165.15 4165.76 4165.88 4166.11 4167.56 4171.44 4172.2 4171.36 4172.96 4174.62 4176.54 4177.19 4177.22 4177.61 4178.49 4180.35 4181.24 4181.66 4180.04 4179.45 4180.88 4182.4 4183.97 4183.3 4182.89 4183 4182.83 4182.53 4177.91 4175.3 4176.63 4182.13 4189.78 4191.59 4194.77 4200.87 4196.52 4187.05 4178.43 4171.85 4169.11 4165.96 4162.64 4160.86 4161.03 4165.17 4166.54 4166.5 4166.94 4167.87 4169.79 4171.46 4173.02 4177.74 4182.44 4187.13 4190.58 4193.42 4195.27 4201.4 4216.13 4216.45 4209.53 4196.89 4188.1 4186.7 4185.49 4184.35 4181.51 4178.54 4175.21 4168.75 4160.66 4157.61 4156.59 4159.64 4159.69 4158.23 4161.12 4161.54 4157.09 4153.58 4150.51 4149.56 4148.51 4147.29 4145.85 4144.29 4143.69 4142.8 4141.27 4138.81 4135.86 4136.83 4137.49 4137.53 4137.16 4136.6 4139.05 4140.75 4141 4142.74 4145.26 4147.96 4149.72 4149.63 4150.36 4151.5 4149.23 4148.11 4149.29 4149.55 4149.35 4150.69 4152.32 4154.58 4155.06 4154.64 4154.35 4153.96 4153.34 4152.76 4152.21 4152.07 4151.89 4151.64 4152.29 4153.4 4153.65 4153.68 4153.23 4154.35 4156.26 4157.04
4031.58 4032.02 4032.26 4032.08 4031.84 4031.56 4031.28 4031.66 4033.36 4034.5 4035.38 4037.1 4038.14 4037.85 4037.82 4037.93 4039.3 4040.24 4040.35 4041.91 4044.21 4046.82 4049.7 4053.18 4055.65 4057.64 4061.18 4064.57 4067.71 4069.46 4070.53 4074.57 4077.76 4079.3 4080.97 4082.72 4081.35 4080.85 4082.1 4084.11 4086.52 4089.23 4091.26 4091.99 4092.51 4092.95 4093.5 4093.88 4093.9 4091.95 4089 4089.47 4088.89 4086.25 4086.4 4087.93 4087.88 4087.67 4087.16 4087.14 4087.36 4088.67 4089.81 4090.62 4089.5 4087.41 4085.89 4084.83 4084.65 4086.31 4088.92 4088.69 4088.48 4088.24 4088.29 4088.5 4084.68 4081.84 4080.93 4080.81 4081.08 4081.14 4081.85 4083.86 4084.42 4084.26 4085.09 4085.8 4086.27 4085.85 4085 4083.51 4082.69 4083.2 4084.09 4085.16 4085.6 4086.23 4087.24 4088.51 4089.92 4092.36 4094.47 4096.01 4096.79 4097.2 4098.94 4100.11 4100.17 4100.23 4100.29 4100.28 4099.89 4098.7 4097.6 4096.53 4097.02 4098.19 4100.73 4101.02 4100.2 4097.33 4094.26 4090.71 4087.86 4085.31 4080.2 4073.81 4064.77 4055.39 4045.8 4040.09 4034.15 4027.59 4020.57 4013.23 4009.79 4007.24 4006.32 4006.21 4006.45 4004.07 3999.82 3991.72 3987.21 3984.44 3983.05 3983.06 3985.86 3984.8 3981.8 3972.05 3964.64 3961.68 3960.4 3959.94 3962.8 3964.18 3962.67 3959.51 3955.5 3937.52 3926.49 3928.9 3934.81 3942.49 3944.31 3944.22 3940.42 3940.22 3941.88 3939.18 3940.04 3948.11 3946.88 3940.95 3927.36 3913.3 3898.02 3888.65 3882.15 3879.82 3877.18 3873.86 3868.89 3863.11 3854.85 3849.3 3848.99 3849.99 3851.67 3854.3 3857.78 3863.04 3867.76 3872.27 3880.72 3890.44 3902.98 3910.94 3916.67 3927.04 3938.21 3951.11 3959.9 3966.69 3965.8 3965.13 3964.88 3964.23 3963.39 3969.18 3974.72 3979.78 3982.05 3982.98 3990.54 3996.9 4000.89 4004.39 4007.71 4014.09 4022.04 4033.29 4044.98 4057.03 4066.39 4077.01 4090.33 4098.92 4105.22 4114.41 4122.43 4128.22 4137.6 4148.93 4153.83 4155.47 4150.51 4145.65 4140.83 4138.82 4140.41 4149.16 4155.78 4161.41 4166.75 4172.82 4180.22 4186.23 4191.53 4188.22 4185.05 4182.22 4179.62 4177.17 4175.75 4175.09 4176.02 4175.61 4174.55 4174.75 4175.85 4178.79 4179.81 4179.85 4180.29 4181.29 4183.42 4184.25 4184.43 4183.07 4182.4 4183.14 4183.83 4184.53 4183.73 4183.18 4183.1 4182.11 4180.66 4176.09 4173.52 4174.87 4181.07 4189.78 4189.3 4191.53 4199.25 4192.05 4177.46 4174.37 4172.97 4174.69 4172.31 4167.84 4164.15 4162.85 4166.36 4168.08 4168.93 4169.18 4169.67 4170.68 4171.8 4173.02 4178.37 4183.45 4188.06 4192.19 4196.12 4199.24 4205.1 4216.57 4215.11 4207.2 4194.73 4186.05 4184.64 4183.42 4182.29 4179.19 4175.76 4171.62 4166.34 4160.42 4156.81 4155.5 4158.75 4159.15 4158.12 4160.18 4160.46 4157.2 4154.06 4150.93 4149.76 4148.97 4148.89 4148.36 4147.58 4147.04 4145.82 4143.21 4139.86 4136.13 4138.64 4140.57 4141.32 4140.49 4138.88 4141.52 4143.41 4143.82 4145.53 4147.9 4150.61 4152.54 4152.95 4154.17 4155.79 4153.11 4151.88 4153.55 4153.93 4153.67 4155.39 4157.11 4158.9 4159.19 4158.74 4159.17 4159.35 4159.03 4158.67 4158.28 4158.35 4158.37 4158.26 4158.85 4159.81 4160.48 4160.7 4160 4161.14 4163.21 4164.47
4033.17 4033.59 4033.82 4033.68 4033.45 4033.16 4032.92 4033.3 4034.97 4036.21 4037.25 4038.75 4039.71 4039.62 4039.68 4039.82 4041.19 4042.06 4041.94 4043.39 4045.66 4048.35 4051.27 4054.72 4057.15 4059.09 4062.66 4066.08 4069.26 4071.01 4072.07 4076.03 4079.19 4080.77 4082.31 4083.84 4082.62 4082.23 4083.45 4085.45 4087.88 4090.71 4092.84 4093.59 4094.01 4094.26 4094.82 4095.2 4095.21 4093.3 4090.41 4090.8 4090.11 4087.26 4087.6 4089.53 4089.49 4089.33 4088.95 4088.97 4089.2 4090.63 4091.85 4092.67 4091.35 4088.96 4088.18 4087.62 4087.53 4088.77 4090.71 4090.79 4090.77 4090.5 4090.62 4090.92 4087.09 4084.37 4083.86 4083.63 4083.55 4084.07 4084.75 4085.74 4085.97 4085.81 4086.62 4087.32 4087.8 4087.39 4086.54 4085.06 4084.25 4084.76 4085.64 4086.7 4087.96 4089.14 4090.19 4091.48 4092.89 4094.46 4096.02 4097.58 4098.38 4098.79 4101.94 4103.81 4103.2 4102.93 4102.83 4103.16 4102.98 4101.79 4100.68 4099.6 4100.67 4102.12 4104.42 4104.29 4102.92 4100.55 4097.84 4094.4 4091.55 4088.96 4083.69 4077.04 4067.5 4057.28 4046.65 4041.35 4036.24 4031.48 4025.69 4019.38 4016.24 4014.38 4015.04 4015.43 4015.67 4013.62 4010.51 4005.3 4000.77 3996.54 3995.33 3994.61 3994.79 3993.23 3990.76 3984.82 3980.08 3977.78 3976.21 3974.97 3975.96 3976.12 3974.57 3970.15 3964.23 3949.78 3940.41 3940.98 3948.5 3959.6 3960.78 3958.71 3950.08 3947.26 3947.27 3946.4 3947.41 3952.29 3951.21 3947.1 3933.53 3920.3 3907.53 3897.65 3889.14 3886.22 3883.42 3880.78 3875.46 3868.79 3856.54 3848.33 3847.7 3848.04 3848.86 3852.03 3856.3 3862.93 3867.21 3870.35 3877.46 3886.1 3897.94 3906.61 3913.79 3925.31 3937.35 3950.62 3959.53 3966.34 3965.86 3965.53 3965.52 3965.02 3964.28 3971.4 3977.65 3982.26 3984.17 3984.76 3993.11 3999.8 4003.2 4006.16 4008.92 4015.91 4023.92 4034.11 4045.69 4058.09 4067.57 4078.16 4091.17 4099.63 4105.89 4114.94 4122.82 4128.47 4137.42 4148.14 4154.57 4157.7 4154.3 4150.48 4146.5 4149.67 4153.02 4156.88 4161.1 4165.47 4174.98 4184.03 4192.28 4198.83 4204.55 4200.8 4196.72 4191.95 4188.1 4184.68 4182.83 4181 4179.21 4177.65 4176.17 4175.95 4176.85 4180.02 4181.62 4182.47 4183.16 4184.07 4185.42 4185.95 4186.06 4185.53 4185.02 4184.58 4184.92 4185.67 4184.37 4183.31 4182.67 4180.97 4178.7 4175.35 4173.55 4174.85 4179.76 4186.48 4185.35 4186.82 4193.52 4186.73 4173.27 4173.18 4174.25 4177.67 4175.46 4170.42 4166.51 4165.08 4168.62 4170.33 4171.12 4170.67 4170.71 4171.71 4173.03 4174.56 4179.88 4184.96 4189.65 4193.72 4197.49 4201.81 4207.76 4217.11 4214.29 4205.36 4192.58 4183.78 4182.61 4181.26 4179.79 4176.63 4172.84 4167.73 4162.31 4156.65 4153.45 4152.59 4156.43 4156.95 4155.82 4156.93 4156.92 4154.62 4152.28 4149.91 4148.8 4148.26 4148.87 4148.95 4148.77 4148.4 4147.17 4144.24 4140.47 4136.26 4139.69 4142.22 4143 4142.26 4140.77 4144.23 4146.65 4147.07 4148.66 4150.86 4153.09 4155.2 4157.14 4158.98 4160.79 4158.06 4156.75 4158.22 4158.55 4158.32 4160.41 4162.33 4163.98 4164.24 4163.82 4164.32 4164.57 4164.28 4163.84 4163.31 4163.86 4164.35 4164.74 4165.24 4165.78 4167.07 4167.85 4167.63 4169.16 4171.6 4172.69
4034.79 4035.16 4035.38 4035.3 4035.07 4034.76 4034.54 4034.93 4036.55 4038.01 4039.41 4040.42 4041.21 4041.55 4041.79 4041.97 4042.86 4043.44 4043.39 4044.84 4047.06 4049.84 4052.81 4056.24 4058.63 4060.51 4064.1 4067.56 4070.81 4072.57 4073.61 4077.42 4080.52 4082.21 4083.5 4084.61 4083.37 4083.08 4084.67 4086.79 4089.2 4091.87 4094.05 4095.26 4095.6 4095.5 4096.08 4096.44 4096.39 4094.2 4090.94 4091.67 4091.23 4088.46 4088.92 4091.02 4091 4090.91 4090.69 4090.76 4090.97 4092.5 4093.77 4094.57 4093.36 4091.13 4090.45 4089.99 4089.97 4091.26 4093.22 4092.38 4091.73 4091.41 4091.53 4091.87 4089.84 4088.33 4087.88 4087.68 4087.61 4088.24 4088.13 4086.61 4086.31 4086.65 4087.47 4088.18 4088.68 4088.29 4087.43 4086.75 4086.47 4086.99 4087.81 4088.79 4090.03 4091.2 4092.23 4093.5 4094.91 4096.46 4098.02 4099.64 4100.47 4100.91 4106.28 4109.18 4107.3 4106.42 4106.05 4107.1 4107.42 4106.31 4105.28 4104.26 4106.4 4108.13 4109.12 4107.93 4105.63 4102.96 4100.18 4097.14 4093.41 4089.28 4083.9 4077.72 4069.76 4059.61 4048.26 4043.59 4040.05 4038.6 4034.39 4028.73 4025.61 4023.78 4024.49 4023.43 4021.43 4021.1 4019.45 4015.15 4010.09 4004.59 4002.93 4000.95 3998.36 3995.9 3993.52 3993.8 3993.51 3992.2 3989.79 3986.77 3987.98 3986.84 3981.09 3974.92 3968.54 3962.12 3956.71 3953.51 3960.38 3972.47 3973.38 3970.51 3960.11 3955.09 3952.69 3955.78 3958.27 3959.81 3956.59 3951.01 3938.74 3928.44 3921.68 3911.91 3900.46 3895.68 3892.45 3892.15 3888.04 3881.99 3861.77 3847.78 3845.47 3844.99 3845.43 3849.42 3854.8 3863.04 3866.61 3867.8 3874.63 3882.61 3893.06 3902.91 3912.62 3924.84 3937.35 3950.63 3959.21 3965.52 3965.82 3966.06 3966.24 3966.33 3966.38 3973.67 3979.56 3982.75 3985.5 3988.11 3996.14 4002.32 4004.86 4007.95 4011.37 4017.88 4025.43 4035.23 4046.27 4058.09 4069.09 4080.18 4091.69 4099.63 4105.89 4114.94 4122.82 4128.47 4136.79 4146.56 4153.03 4157.61 4158.37 4159.36 4160.49 4170.93 4175.14 4167.42 4167.45 4171.52 4181.73 4190.6 4196.96 4201.26 4204.55 4201.82 4198.63 4194.48 4191.28 4188.52 4187.46 4185.33 4181.11 4178.33 4176.27 4176.59 4177.65 4180.22 4182.67 4185.11 4186.26 4186.85 4186.4 4186.37 4186.56 4187.45 4187.33 4185.25 4185.69 4187.42 4185.22 4183.26 4181.72 4179.37 4176.6 4175.66 4175.4 4176.57 4178.14 4179.84 4179.68 4180.55 4183.61 4180.47 4174.37 4174.76 4175.77 4178.06 4175.46 4170.42 4167.98 4167.77 4172.02 4173.32 4173.13 4171.47 4171.02 4172.9 4175.17 4177.67 4182.29 4187.01 4191.95 4195.18 4197.56 4203 4209.38 4217.81 4213.96 4203.97 4190.41 4181.26 4180.58 4178.94 4176.81 4173.76 4169.68 4163.48 4156.59 4149.3 4147.46 4147.83 4152.64 4153.06 4151.27 4151.34 4150.88 4149.29 4148.23 4147.43 4146.64 4146.38 4147.21 4147.64 4147.88 4147.76 4146.87 4144.37 4140.64 4136.26 4139.97 4142.47 4142.6 4142.5 4142.29 4147.21 4150.55 4150.81 4152.21 4154.2 4155.46 4157.79 4162.25 4164.88 4166.59 4164.2 4162.8 4163.39 4163.5 4163.4 4165.84 4168.07 4169.93 4170.32 4169.99 4169.92 4169.7 4169.18 4168.37 4167.39 4168.68 4169.95 4171.21 4171.55 4171.42 4173.54 4175.27 4176.27 4178.6 4181.62 4181.88
4036.4 4036.72 4036.93 4036.91 4036.67 4036.34 4036.14 4036.54 4038.12 4039.8 4041.54 4042.07 4042.68 4043.47 4043.88 4044.09 4044.51 4044.8 4044.83 4046.27 4048.44 4051.31 4054.34 4057.75 4060.09 4061.91 4065.53 4069.03 4072.35 4074.12 4075.13 4078.8 4081.83 4083.64 4084.69 4085.38 4084.11 4083.92 4085.88 4088.11 4090.51 4093.02 4095.25 4096.92 4097.18 4096.74 4097.33 4097.68 4097.55 4095.1 4091.46 4092.53 4092.35 4089.64 4090.24 4092.5 4092.49 4092.47 4092.42 4092.53 4092.72 4094.34 4095.68 4096.44 4095.34 4093.29 4092.7 4092.33 4092.4 4093.73 4095.7 4093.96 4092.68 4092.32 4092.44 4092.81 4092.55 4092.25 4091.87 4091.7 4091.64 4092.39 4091.53 4087.44 4086.65 4087.5 4088.31 4089.02 4089.56 4089.17 4088.31 4088.42 4088.67 4089.2 4089.97 4090.85 4092.09 4093.25 4094.25 4095.5 4096.9 4098.44 4100.01 4101.68 4102.55 4103.02 4110.57 4114.53 4111.35 4109.88 4109.25 4111 4111.83 4110.8 4109.83 4108.88 4112.09 4114.11 4113.77 4111.53 4108.32 4105.34 4102.5 4099.86 4095.23 4089.59 4084.1 4078.37 4072.03 4061.91 4049.85 4045.82 4043.79 4045.73 4043.04 4038.02 4034.93 4033.14 4033.89 4031.36 4027.16 4028.54 4028.33 4024.97 4019.36 4012.6 4010.48 4007.28 4001.86 3998.55 3996.25 4002.7 4006.89 4006.6 4003.33 3998.54 3999.96 3997.57 3987.53 3979.66 3972.81 3974.37 3973.05 3965.95 3972.22 3985.3 3985.93 3982.29 3970.08 3962.86 3958.07 3965.09 3969.13 3967.24 3961.93 3954.89 3943.9 3936.46 3935.88 3926.11 3911.74 3905.11 3901.42 3903.5 3900.58 3895.16 3867.02 3847.27 3843.25 3841.96 3842.03 3846.84 3853.29 3863.18 3865.99 3865.28 3871.84 3879.19 3888.22 3899.26 3911.46 3924.37 3937.35 3950.64 3958.9 3964.71 3965.76 3966.59 3966.96 3967.63 3968.46 3975.92 3981.46 3983.21 3986.83 3991.43 3999.14 4004.82 4006.5 4009.74 4013.8 4019.84 4026.94 4036.32 4046.85 4058.09 4070.59 4082.2 4092.18 4099.63 4105.89 4114.94 4122.82 4128.47 4136.17 4144.99 4151.5 4157.46 4162.46 4168.22 4174.44 4192.16 4197.42 4177.76 4173.76 4177.52 4188.44 4197.16 4201.58 4203.65 4204.55 4202.82 4200.51 4196.99 4194.43 4192.33 4192.05 4189.65 4182.96 4179 4176.36 4177.22 4178.45 4180.42 4183.72 4187.74 4189.33 4189.63 4187.35 4186.78 4187.07 4189.35 4189.63 4185.89 4186.45 4189.15 4186.07 4183.22 4180.76 4177.78 4174.52 4175.95 4177.24 4178.28 4176.49 4173.29 4174.08 4174.41 4173.8 4174.34 4175.45 4176.33 4177.29 4178.43 4175.46 4170.42 4169.44 4170.43 4175.39 4176.27 4175.12 4172.27 4171.31 4174.09 4177.3 4180.77 4184.7 4189.03 4194.24 4196.63 4197.62 4204.18 4211 4218.49 4213.63 4202.58 4188.26 4178.76 4178.57 4176.65 4173.85 4170.93 4166.57 4159.27 4150.94 4142.05 4141.54 4143.11 4148.9 4149.21 4146.78 4145.83 4144.91 4144.03 4144.23 4144.99 4144.5 4144.52 4145.56 4146.34 4146.99 4147.14 4146.56 4144.51 4140.81 4136.26 4140.25 4142.72 4142.2 4142.74 4143.8 4150.16 4154.42 4154.51 4155.73 4157.52 4157.82 4160.33 4167.35 4170.74 4172.35 4170.29 4168.82 4168.51 4168.42 4168.44 4171.24 4173.78 4175.84 4176.37 4176.12 4175.48 4174.8 4174.05 4172.86 4171.44 4173.47 4175.51 4177.64 4177.82 4177.03 4179.95 4182.63 4184.87 4188 4191.6 4191.03
4038.55 4038.88 4038.98 4038.63 4038.49 4038.45 4038.27 4038.67 4040.21 4041.61 4042.95 4043.85 4044.7 4045.47 4045.89 4046.13 4046.55 4046.82 4046.79 4048.19 4050.32 4053.25 4056.31 4059.68 4062.01 4063.83 4067.42 4070.9 4074.23 4075.98 4076.97 4080.62 4083.62 4085.36 4086.4 4087.09 4086.11 4085.92 4087.31 4089.48 4092.06 4094.6 4096.83 4098.46 4098.69 4098.2 4098.81 4099.21 4099.21 4096.79 4093.14 4093.81 4093.46 4091.08 4091.88 4094.28 4094.3 4094.33 4094.41 4094.63 4094.93 4096.65 4097.87 4098.1 4097.29 4095.93 4095.39 4095.09 4095.24 4095.98 4097.02 4096.44 4095.96 4095.64 4095.81 4096.23 4095.96 4095.69 4095.39 4095.28 4095.25 4094.91 4093.98 4091.93 4091.78 4092.59 4093.35 4094.04 4094.61 4094.88 4094.99 4095.16 4095.42 4095.87 4095.94 4095.83 4098.04 4099.87 4100.94 4102.64 4104.66 4105.54 4106.59 4108.05 4108.25 4107.83 4114.11 4117.5 4115.22 4114.22 4113.86 4114 4113.71 4112.64 4111.63 4110.66 4113.67 4115.54 4115.19 4113.47 4111.03 4107.04 4103.48 4100.74 4096.34 4091.08 4085.66 4080.3 4074.96 4066.34 4056.02 4052.46 4049.96 4049.47 4046.78 4042.93 4041.58 4040.33 4039.15 4036.23 4032.38 4031.22 4029.11 4025.15 4020.75 4016.04 4013.47 4011.05 4008.97 4006.9 4004.84 4007.98 4009.34 4007.2 4004.45 4001.33 4003.11 4002.26 3996.23 3991.47 3987.31 3986.5 3983.67 3976.83 3982.96 3995.69 3999.15 3996.63 3981.99 3972.63 3965.8 3973.25 3977.4 3974.96 3969.14 3961.6 3950.28 3942.19 3940.27 3930.44 3916.61 3910.28 3905.96 3905.48 3902 3896.95 3871 3851.78 3844.94 3841.64 3840.06 3845.83 3852.77 3862.14 3865.2 3865.12 3869.55 3875.26 3883.7 3895.41 3908.92 3924.06 3938.1 3949.94 3958.2 3964.71 3965.21 3965.84 3966.78 3967.67 3968.56 3976.65 3982.95 3985.74 3989.75 3994.44 4000.36 4005.67 4010 4012.66 4014.58 4022.5 4030.57 4039 4049.19 4060.37 4072.97 4084.17 4092.67 4100.17 4107.23 4116.24 4124.09 4129.72 4137.1 4145.44 4152.9 4160 4166.52 4174.04 4182.16 4195.29 4198.77 4183.21 4179.47 4181.64 4192.28 4200.35 4203.3 4204.39 4204.55 4202.82 4200.73 4197.91 4195.66 4193.67 4192.59 4190.16 4185.08 4181.27 4178.1 4180.77 4183.23 4185.3 4187.39 4189.55 4190.06 4190.18 4189.61 4189.58 4189.85 4193.31 4194.72 4192.03 4192.49 4194.55 4187.93 4182.62 4179.89 4177.37 4174.91 4175.87 4177.14 4179.09 4177.27 4173.55 4174.41 4175.09 4175.49 4176.3 4177.33 4177.09 4177.29 4178.43 4176.67 4173.41 4175.71 4178.88 4183.74 4187.14 4189.8 4179.82 4174.99 4180.55 4184.43 4187.53 4191.24 4195.3 4200.15 4203.89 4207.08 4209.69 4213.34 4219.22 4213.34 4201.56 4187.41 4177.84 4177.06 4175.1 4172.53 4169.52 4164.99 4157.33 4149.15 4140.64 4140.33 4141.32 4144.86 4145.01 4143.42 4140.93 4138.75 4137.16 4137 4137.54 4137.18 4136.91 4136.75 4137.79 4139.4 4140.01 4139.54 4136.83 4133.63 4130.13 4137.66 4142.61 4142.34 4142.9 4143.89 4150.88 4156.43 4159.22 4160.35 4160.71 4160.64 4162.75 4169.23 4171.77 4172.35 4170.29 4168.82 4168.51 4168.42 4168.44 4171.24 4173.78 4175.84 4176.37 4176.12 4175.48 4174.8 4174.05 4172.89 4171.5 4173.19 4175.55 4179.34 4179.86 4178.79 4182.31 4185.29 4187.23 4189.35 4191.6 4194.6
4040.73 4041.06 4041.05 4040.37 4040.32 4040.58 4040.43 4040.82 4042.31 4043.43 4044.38 4045.65 4046.74 4047.49 4047.92 4048.19 4048.61 4048.86 4048.78 4050.14 4052.23 4055.22 4058.3 4061.63 4063.95 4065.77 4069.33 4072.79 4076.12 4077.87 4078.83 4082.46 4085.43 4087.11 4088.12 4088.82 4088.13 4087.94 4088.76 4090.87 4093.64 4096.2 4098.42 4100.03 4100.21 4099.68 4100.3 4100.75 4100.88 4098.49 4094.83 4095.1 4094.59 4092.53 4093.53 4096.08 4096.12 4096.22 4096.42 4096.76 4097.16 4098.97 4100.08 4099.78 4099.25 4098.6 4098.12 4097.88 4098.12 4098.25 4098.34 4098.95 4099.28 4099.01 4099.23 4099.69 4099.41 4099.16 4098.96 4098.9 4098.9 4097.45 4096.48 4096.46 4096.97 4097.74 4098.45 4099.12 4099.71 4100.65 4101.76 4101.99 4102.26 4102.63 4101.99 4100.86 4104.07 4106.58 4107.72 4109.86 4112.53 4112.73 4113.27 4114.51 4114.03 4112.69 4117.67 4120.51 4119.12 4118.61 4118.52 4117.01 4115.62 4114.49 4113.46 4112.46 4115.25 4116.99 4116.63 4115.43 4113.77 4108.75 4104.47 4101.63 4097.46 4092.59 4087.23 4082.26 4077.92 4070.82 4062.26 4059.18 4056.18 4053.28 4050.55 4047.9 4048.33 4047.59 4044.49 4041.15 4037.68 4033.91 4029.89 4025.35 4022.13 4019.51 4016.5 4014.91 4016.14 4015.36 4013.55 4013.31 4011.8 4007.83 4005.58 4004.16 4006.3 4007.06 4005 4003.45 4002.06 3998.8 3994.45 3987.88 3993.87 4006.25 4012.61 4011.18 3994.13 3982.56 3973.64 3981.52 3985.77 3982.8 3976.46 3968.39 3956.74 3947.98 3944.74 3934.81 3921.53 3915.51 3910.53 3907.52 3903.42 3898.76 3875.05 3856.31 3846.68 3841.33 3838.07 3844.82 3852.23 3861.09 3864.4 3864.96 3867.23 3871.3 3879.15 3891.52 3906.35 3923.76 3938.83 3949.26 3957.49 3964.71 3964.64 3965.09 3966.58 3967.71 3968.66 3977.39 3984.47 3988.27 3992.7 3997.48 4001.57 4006.57 4013.51 4015.63 4015.37 4025.21 4034.24 4041.73 4051.55 4062.67 4075.37 4086.14 4093.17 4100.71 4108.59 4117.56 4125.38 4131 4138.04 4145.89 4154.32 4162.58 4170.61 4179.93 4189.99 4198.42 4200.18 4188.68 4185.25 4185.8 4196.17 4203.55 4205.05 4205.14 4204.55 4202.82 4200.97 4198.84 4196.9 4195.03 4193.13 4190.7 4187.19 4183.57 4179.86 4184.36 4188.08 4190.24 4191.11 4191.37 4190.78 4190.76 4191.88 4192.42 4192.66 4197.32 4199.88 4198.24 4198.62 4200.02 4189.78 4182.01 4179.01 4176.94 4175.31 4175.79 4177.05 4179.91 4178.05 4173.81 4174.73 4175.8 4177.18 4178.28 4179.24 4177.85 4177.29 4178.43 4177.88 4176.44 4182.09 4187.44 4192.2 4198.15 4204.74 4187.43 4178.74 4187.06 4191.65 4194.39 4197.86 4201.64 4206.14 4211.24 4216.67 4215.25 4215.68 4219.98 4213.05 4200.52 4186.55 4176.9 4175.54 4173.53 4171.19 4168.09 4163.38 4155.38 4147.35 4139.23 4139.11 4139.47 4140.82 4140.78 4140.03 4135.99 4132.55 4130.26 4129.71 4130.04 4129.82 4129.23 4127.92 4129.18 4131.75 4132.85 4132.47 4129.12 4126.4 4123.97 4135.08 4142.49 4142.47 4143.07 4143.98 4151.61 4158.5 4163.96 4165.03 4163.93 4163.5 4165.18 4171.15 4172.81 4172.35 4170.29 4168.82 4168.51 4168.42 4168.44 4171.24 4173.78 4175.84 4176.37 4176.12 4175.48 4174.8 4174.05 4172.91 4171.57 4172.92 4175.61 4181.03 4181.93 4180.57 4184.69 4187.97 4189.62 4190.73 4191.6 4198.24
4042.53 4042.65 4042.43 4041.54 4041.67 4042.31 4042.2 4042.6 4044.04 4045.02 4045.77 4047.21 4048.41 4049.15 4049.58 4049.85 4050.27 4050.53 4050.46 4051.64 4053.47 4056.75 4060.02 4063.34 4065.67 4067.53 4071.05 4074.49 4077.84 4079.57 4080.5 4084.05 4086.96 4088.66 4089.62 4090.23 4089.72 4089.58 4090.18 4092.28 4095.14 4097.62 4099.78 4101.34 4101.52 4101.02 4101.65 4102.22 4102.66 4100.19 4096.24 4096.39 4095.84 4093.87 4095 4097.68 4097.75 4097.9 4098.22 4098.51 4098.79 4100.67 4101.81 4101.49 4101.2 4100.92 4100.5 4100.33 4100.65 4100.39 4099.83 4101.33 4102.25 4102.03 4102.28 4102.77 4102.51 4102.29 4102.15 4102.11 4102.12 4100.65 4099.9 4100.57 4101.26 4101.96 4102.66 4103.33 4103.92 4105.38 4107.29 4107.58 4107.74 4107.63 4107.1 4106.38 4109.12 4111.33 4112.46 4114.57 4117.17 4117.38 4117.88 4119 4118.53 4117.27 4120.77 4122.87 4122.15 4121.79 4121.62 4119.41 4117.56 4116.4 4115.33 4114.31 4116.54 4118.08 4118.24 4117.36 4115.95 4111.66 4107.69 4104.34 4100.44 4096.26 4091.01 4086.13 4081.89 4076.22 4069.82 4066.47 4062.92 4058.86 4055.97 4053.61 4053.85 4052.47 4047.75 4044.01 4040.72 4036.55 4032.28 4027.8 4024.74 4022.35 4019.91 4018.92 4020.8 4020.02 4017.88 4016.46 4014.15 4010.08 4008.46 4008.07 4010.42 4011.8 4011.23 4011.03 4011 4009.77 4006.82 4000.57 4005.1 4015.04 4020.72 4019.41 4004.09 3993.44 3985.09 3990.1 3992.44 3989.3 3982.32 3973.37 3962.4 3953.9 3950.11 3940.22 3927.25 3921.31 3915.95 3911.61 3906.93 3902.03 3880.38 3862.42 3851.22 3845.52 3842.52 3847.28 3852.93 3860.31 3863.13 3863.66 3865.6 3869.45 3877.27 3889.36 3903.76 3922.37 3938.23 3948.67 3957.12 3964.68 3963.8 3964.16 3967.01 3968.93 3970.44 3978.45 3985.36 3990.13 3995.26 4000.65 4003.91 4008.94 4017.65 4019.28 4017.38 4027.65 4037.14 4045.21 4055.33 4066.64 4080.56 4091.72 4097.49 4105.1 4113.73 4122.59 4130.02 4134.67 4140.51 4146.97 4155.88 4164.91 4174.32 4183.99 4193.87 4199.95 4201.56 4194.34 4193.95 4197.09 4206.26 4211.16 4207.37 4205.57 4204.69 4204.2 4203.66 4203.09 4201.55 4199.54 4195.95 4192.65 4189.81 4185.63 4180.74 4186.91 4191.49 4192.93 4192.96 4192.28 4191.75 4192.04 4194 4194.8 4195.02 4200.78 4204.83 4205.6 4205.61 4205.24 4194 4185.68 4182.98 4180.56 4178.24 4177.51 4177.92 4180.54 4178.44 4173.94 4174.98 4176.34 4178.38 4179.51 4180.18 4178.81 4178.07 4178.62 4179.35 4180.2 4187.14 4193.58 4199.14 4207.39 4217.14 4199.91 4190.82 4197.73 4201.52 4203.72 4206.86 4210.48 4215.11 4220.76 4227 4220.72 4217.74 4221.09 4213.2 4199.66 4185.67 4175.91 4174.26 4172.06 4169.55 4166.2 4161.42 4153.67 4146.06 4138.49 4138.55 4138.69 4139.01 4138.91 4138.59 4133.8 4129.82 4127.35 4126.61 4126.74 4126.38 4125.57 4123.83 4125.01 4127.66 4129.19 4128.98 4125.31 4123.38 4122.31 4134.46 4142.55 4142.57 4143.14 4144 4151.96 4159.58 4166.63 4167.65 4165.64 4165.01 4166.92 4174.03 4175.57 4174.33 4170.76 4168.48 4168.67 4169.15 4169.81 4172.09 4174.31 4176.45 4176.83 4176.31 4175.18 4174.49 4174.64 4172.83 4169.98 4171.07 4174.35 4182.16 4183.39 4181.36 4186.22 4190.23 4192.65 4193 4192.31 4199.76
4043.97 4043.68 4043.16 4042.16 4042.56 4043.68 4043.62 4044.04 4045.42 4046.38 4047.15 4048.54 4049.72 4050.47 4050.88 4051.12 4051.56 4051.85 4051.85 4052.74 4054.08 4057.88 4061.5 4064.83 4067.2 4069.13 4072.61 4076.04 4079.42 4081.13 4082.02 4085.42 4088.26 4090.06 4090.93 4091.34 4090.91 4090.87 4091.6 4093.74 4096.6 4098.91 4100.93 4102.43 4102.66 4102.26 4102.9 4103.64 4104.57 4101.89 4097.38 4097.7 4097.22 4095.14 4096.3 4099.1 4099.2 4099.41 4099.84 4099.93 4099.83 4101.76 4103.09 4103.26 4103.17 4102.94 4102.6 4102.5 4102.9 4102.42 4101.49 4103.61 4104.95 4104.77 4105.05 4105.56 4105.31 4105.11 4105.01 4104.97 4104.96 4104.57 4104.3 4104.33 4104.73 4105.31 4106.07 4106.75 4107.31 4109.16 4111.68 4112.04 4111.96 4110.99 4111.38 4112.5 4113.3 4114.2 4115.24 4116.82 4118.67 4119.56 4120.5 4121.6 4121.84 4121.66 4123.49 4124.62 4124.33 4123.83 4123.2 4121.27 4119.59 4118.38 4117.3 4116.27 4117.57 4118.85 4120.03 4119.3 4117.6 4115.81 4113.19 4108.94 4105.39 4102.17 4097.07 4092.01 4086.97 4082.71 4078.85 4074.47 4070.28 4066.38 4063.14 4060.2 4058.26 4055.01 4049.02 4044.86 4041.57 4039.2 4036.35 4032.54 4028.63 4024.6 4023.78 4023.16 4023.02 4020.94 4017.88 4017.49 4016.43 4014 4013.19 4013.16 4015.56 4016.61 4014.98 4014.35 4014.22 4019.55 4021.06 4015.16 4016.83 4022.24 4023.59 4021.44 4011.99 4005.52 4000.45 3999.23 3997.52 3994.58 3986.83 3976.62 3967.35 3960.05 3956.53 3946.78 3933.9 3927.79 3922.3 3917.88 3912.6 3906.84 3887.07 3870.23 3858.69 3854.33 3853.54 3853.3 3854.82 3859.81 3861.36 3861.21 3864.65 3869.67 3878 3888.86 3901.09 3919.84 3936.28 3948.17 3957.09 3964.61 3962.69 3963.08 3968.02 3971.37 3973.96 3979.85 3985.66 3991.3 3997.48 4004.01 4007.44 4012.87 4022.44 4023.65 4020.65 4029.87 4039.37 4049.5 4060.62 4072.35 4088.64 4101.03 4105.75 4113.45 4122.78 4131.44 4138.1 4140.86 4144.53 4148.69 4157.6 4167.05 4177.7 4186.28 4193.87 4199.95 4203.07 4200.2 4205.82 4215.83 4222.86 4223.23 4210.45 4205.68 4204.97 4206.97 4208.9 4210.71 4209.72 4207.3 4201.15 4196.07 4192.97 4187.48 4180.74 4188.43 4193.5 4193.45 4192.96 4192.28 4192.98 4194.07 4196.01 4196.78 4196.98 4203.73 4209.72 4214.21 4213.59 4210.31 4200.7 4193.74 4191.9 4188.31 4183.78 4181.1 4179.75 4181.01 4178.44 4173.94 4175.15 4176.73 4179.1 4180.01 4180.18 4179.99 4179.64 4179.02 4181.17 4184.77 4190.91 4197.41 4204.67 4215.07 4227.2 4217.59 4211.56 4212.88 4214.25 4215.73 4218.46 4222.01 4227.25 4232.69 4238.28 4226.33 4219.52 4222.61 4213.77 4198.95 4184.74 4174.84 4173.21 4170.64 4167.57 4163.83 4159.08 4152.14 4145.29 4138.41 4138.62 4138.92 4139.41 4139.36 4139.05 4134.32 4130.49 4128.36 4127.61 4127.54 4126.79 4125.83 4124.4 4125.17 4127.01 4128.93 4128.98 4125.31 4124.5 4125.14 4135.76 4142.79 4142.63 4143.12 4143.95 4151.95 4159.74 4167.26 4168.21 4165.88 4165.2 4168.03 4177.92 4180.08 4178.33 4171.74 4167.82 4168.98 4170.64 4172.57 4173.81 4175.4 4177.68 4177.75 4176.7 4174.59 4173.87 4175.82 4172.6 4166.73 4167.62 4171.82 4182.67 4184.26 4181.16 4186.91 4192.13 4196.36 4196.18 4193.76 4199.16
4045.41 4044.71 4043.89 4042.78 4043.46 4045.03 4045.04 4045.47 4046.79 4047.74 4048.51 4049.86 4051.01 4051.79 4052.18 4052.39 4052.84 4053.17 4053.23 4053.82 4054.68 4058.99 4062.96 4066.3 4068.73 4070.72 4074.16 4077.57 4080.98 4082.67 4083.53 4086.77 4089.55 4091.44 4092.22 4092.44 4092.09 4092.14 4093.01 4095.19 4098.05 4100.18 4102.07 4103.5 4103.78 4103.48 4104.14 4105.05 4106.46 4103.58 4098.52 4099 4098.59 4096.39 4097.6 4100.51 4100.64 4100.91 4101.45 4101.33 4100.87 4102.84 4104.36 4105.02 4105.13 4104.95 4104.67 4104.65 4105.12 4104.43 4103.14 4105.86 4107.62 4107.49 4107.79 4108.31 4108.09 4107.92 4107.86 4107.81 4107.78 4108.45 4108.69 4108.06 4108.16 4108.64 4109.45 4110.15 4110.67 4112.91 4116.04 4116.47 4116.14 4114.31 4115.64 4118.57 4117.46 4117.05 4118 4119.05 4120.15 4121.71 4123.1 4124.19 4125.13 4126.01 4126.19 4126.36 4126.5 4125.84 4124.77 4123.11 4121.59 4120.35 4119.25 4118.2 4118.6 4119.59 4121.81 4121.23 4119.24 4119.92 4118.66 4113.5 4110.3 4108.05 4103.08 4097.86 4092.01 4089.18 4087.84 4082.43 4077.61 4073.85 4070.27 4066.74 4062.66 4057.54 4050.27 4045.69 4042.42 4041.81 4040.37 4037.25 4032.48 4026.84 4027.61 4027.4 4025.2 4021.84 4017.88 4018.51 4018.67 4017.91 4017.88 4018.2 4020.67 4021.4 4018.69 4017.64 4017.42 4029.23 4035.26 4029.72 4028.49 4029.4 4026.47 4023.38 4019.93 4017.58 4015.77 4008.36 4002.56 3999.83 3991.3 3979.84 3972.25 3966.16 3962.9 3953.3 3940.51 3934.24 3928.6 3924.11 3918.23 3911.61 3893.7 3877.99 3866.11 3863.11 3864.5 3859.31 3856.73 3859.29 3859.6 3858.78 3863.69 3869.88 3878.74 3888.35 3898.46 3917.33 3934.33 3947.69 3957.07 3964.55 3961.59 3961.98 3969.05 3973.8 3977.44 3981.26 3985.94 3992.48 3999.69 4007.34 4010.94 4016.77 4027.21 4027.98 4023.9 4032.08 4041.55 4053.79 4065.87 4078.02 4096.65 4110.3 4113.95 4121.77 4131.78 4140.26 4146.16 4146.99 4148.51 4150.39 4159.3 4169.15 4181.06 4188.54 4193.87 4199.95 4204.5 4206.07 4217.69 4234.56 4239.45 4235.36 4213.39 4205.79 4205.24 4209.7 4214.07 4218.31 4217.85 4215.02 4206.32 4199.47 4196.1 4189.3 4180.74 4189.92 4195.51 4193.94 4192.96 4192.28 4194.18 4196.08 4198 4198.75 4198.92 4206.65 4214.52 4222.83 4221.5 4215.35 4207.35 4201.74 4200.78 4196 4189.27 4184.67 4181.59 4181.46 4178.44 4173.94 4175.31 4177.11 4179.82 4180.5 4180.18 4181.15 4181.2 4179.4 4182.99 4189.31 4194.66 4201.18 4210.19 4222.72 4237.22 4235.19 4232.37 4227.91 4226.94 4227.7 4230.01 4233.49 4239.35 4244.57 4249.52 4231.92 4221.28 4224.11 4214.33 4198.25 4183.83 4173.79 4172.17 4169.23 4165.61 4161.49 4156.75 4150.65 4144.52 4138.33 4138.69 4139.14 4139.8 4139.82 4139.52 4134.84 4131.15 4129.37 4128.61 4128.34 4127.2 4126.08 4124.98 4125.31 4126.37 4128.67 4128.98 4125.31 4125.62 4127.94 4137.06 4143.02 4142.68 4143.1 4143.91 4151.93 4159.89 4167.88 4168.77 4166.11 4165.38 4169.1 4181.82 4184.55 4182.29 4172.73 4167.14 4169.3 4172.12 4175.31 4175.53 4176.48 4178.9 4178.66 4177.09 4174.02 4173.23 4177 4172.37 4163.51 4164.22 4169.28 4183.22 4185.1 4180.97 4187.59 4193.99 4200.06 4199.33 4195.19 4198.59
4046.35 4045.69 4045.05 4044.47 4044.95 4045.98 4046.04 4046.5 4047.76 4048.72 4049.53 4050.54 4051.47 4052.28 4052.69 4052.91 4053.36 4053.75 4054.05 4055.02 4056.33 4060.13 4063.77 4067.16 4069.65 4071.72 4075.15 4078.56 4081.98 4083.67 4084.51 4087.42 4090.07 4092.23 4093.19 4093.56 4092.99 4092.9 4093.76 4095.95 4098.82 4100.49 4102.16 4103.9 4104.37 4104.22 4104.91 4105.82 4107.2 4104.48 4099.7 4099.79 4099.04 4096.61 4098.02 4101.36 4101.53 4101.84 4102.42 4102.63 4102.64 4104.62 4106.14 4106.74 4106.85 4106.72 4106.52 4106.58 4107.16 4106.61 4105.5 4108.13 4109.83 4109.72 4110.03 4110.56 4110.32 4110.49 4111.49 4111.05 4109.92 4111.68 4112.87 4112.94 4113.27 4113.74 4114.7 4115.54 4116.15 4117.38 4118.95 4120.56 4121.17 4119.77 4120.66 4122.73 4123.75 4124.76 4125.73 4126.65 4127.55 4127.82 4128.36 4129.5 4130.46 4131.33 4131.45 4131.52 4131.5 4130.77 4129.68 4126.83 4124.54 4123.36 4122.92 4122.82 4123.12 4123.72 4124.92 4124 4122.01 4122.59 4121.27 4116.11 4112.37 4109.29 4104.41 4099.79 4095.66 4092.76 4090.48 4085.22 4080.31 4075.99 4072.2 4068.64 4064.7 4060.07 4054.02 4048.77 4043.91 4042.41 4040.55 4037.99 4034.47 4030.41 4032.01 4031.84 4028.09 4024.83 4021.74 4024.63 4026.36 4025.77 4026.13 4026.95 4025.62 4025.55 4028.28 4028.33 4027.14 4039.7 4046.46 4041.61 4038.3 4035.77 4032.67 4029.48 4026.05 4023.2 4020.62 4013.54 4006.9 4000.88 3993.77 3985.96 3976.83 3969.61 3966.03 3956.68 3944.41 3937.79 3931.28 3924.77 3918.23 3911.61 3897.66 3885.76 3877.57 3873.51 3871.57 3862.06 3855.66 3855.29 3855.28 3855.39 3866.23 3875.89 3883.04 3892.11 3902.25 3917.78 3932.53 3945.96 3955.34 3962.78 3962.74 3964.47 3969.66 3974.38 3978.89 3984.14 3989.82 3996.43 4006.01 4017.18 4019 4022.72 4030.34 4031.26 4028.76 4035.12 4044.09 4058.61 4071 4082.5 4099.25 4113.74 4124.02 4132.54 4140.39 4148.02 4153.6 4155.2 4160.46 4167.57 4185.46 4200.53 4209.68 4215.14 4218.78 4221.07 4222.57 4222.59 4229.47 4239.95 4244.69 4241.29 4221.74 4215.46 4215.7 4214.65 4214.81 4217.5 4217.62 4216.4 4211.91 4208.27 4206.13 4202.18 4197.25 4197.64 4197.83 4197.92 4198.1 4198.35 4202.85 4206.26 4207.45 4206.19 4203.74 4212.58 4220.45 4226.36 4225.37 4220.86 4210.9 4203.55 4201.22 4196.57 4190.69 4185.68 4182.28 4182.03 4179.94 4176.9 4177.93 4179.81 4183.45 4184.68 4184.71 4185.55 4185.45 4183.48 4185.4 4189.31 4194.66 4203 4217.68 4228.33 4237.22 4239.04 4238.63 4233.63 4233.53 4235.86 4237.51 4239.94 4243.97 4246.98 4249.52 4233.36 4223.2 4224.57 4214.33 4198.25 4182.92 4172.22 4170.39 4167.54 4164.13 4160.01 4155.33 4149.45 4143.65 4137.85 4138.45 4139.06 4139.73 4139.78 4139.52 4134.87 4131.2 4129.41 4128.61 4128.31 4127.19 4126.08 4125 4125.54 4126.89 4128.88 4128.97 4125.29 4125.61 4127.94 4137.16 4143.18 4142.82 4143.19 4143.91 4151.48 4159.29 4167.73 4168.83 4166.27 4165.3 4168.98 4182.08 4184.74 4182.2 4171.86 4165.95 4168.72 4171.5 4174.34 4174.85 4175.94 4178.22 4177.21 4174.57 4171.17 4170.41 4174.93 4169.51 4159.15 4159.14 4164.58 4181.16 4183.96 4179.91 4186.44 4193.11 4200.2 4198.22 4191.73 4194.67
4047.31 4046.67 4046.23 4046.17 4046.46 4046.94 4047.05 4047.53 4048.74 4049.71 4050.56 4051.22 4051.94 4052.77 4053.2 4053.43 4053.88 4054.35 4054.88 4056.24 4058.01 4061.28 4064.59 4068.02 4070.58 4072.73 4076.14 4079.55 4083 4084.68 4085.5 4088.08 4090.59 4093.02 4094.17 4094.69 4093.9 4093.66 4094.51 4096.7 4099.59 4100.8 4102.27 4104.3 4104.97 4104.97 4105.69 4106.61 4107.94 4105.39 4100.9 4100.58 4099.49 4096.82 4098.44 4102.21 4102.43 4102.79 4103.4 4103.93 4104.42 4106.42 4107.93 4108.48 4108.6 4108.5 4108.38 4108.53 4109.22 4108.83 4107.88 4110.42 4112.06 4111.98 4112.3 4112.83 4112.58 4113.09 4115.15 4114.33 4112.08 4114.95 4117.11 4117.88 4118.44 4118.9 4120.01 4120.99 4121.71 4121.91 4121.88 4124.71 4126.27 4125.31 4125.76 4126.93 4130.12 4132.58 4133.57 4134.35 4135.05 4134 4133.68 4134.89 4135.86 4136.72 4136.77 4136.75 4136.56 4135.76 4134.65 4130.59 4127.52 4126.41 4126.62 4127.49 4127.69 4127.88 4128.07 4126.8 4124.81 4125.29 4123.91 4118.76 4114.46 4110.55 4105.74 4101.76 4099.32 4096.38 4093.15 4088.04 4083.04 4078.15 4074.15 4070.56 4066.77 4062.65 4057.79 4051.88 4045.42 4043.01 4040.74 4038.73 4036.47 4034.03 4036.45 4036.31 4031.03 4027.84 4025.64 4030.84 4034.17 4033.74 4034.49 4035.83 4030.61 4029.83 4037.94 4039.2 4037.01 4050.34 4057.84 4053.69 4048.28 4042.23 4038.96 4035.66 4032.26 4028.89 4025.53 4018.79 4011.24 4001.99 3996.24 3992.16 3981.46 3973.1 3969.2 3960.1 3948.35 3941.39 3933.96 3925.45 3918.23 3911.61 3901.69 3893.69 3889.16 3884.09 3878.73 3864.82 3854.53 3851.3 3850.92 3851.97 3868.84 3881.95 3887.42 3895.92 3906.08 3918.21 3930.71 3944.22 3953.6 3961 3963.91 3966.96 3970.3 3974.96 3980.36 3987.07 3993.75 4000.42 4012.39 4027.17 4027.16 4028.72 4033.54 4034.56 4033.69 4038.19 4046.69 4063.46 4076.2 4087.04 4101.86 4117.3 4134.16 4143.5 4149.11 4155.88 4161.15 4163.51 4172.57 4185.06 4212.27 4232.66 4239.03 4242.36 4244.24 4242.59 4240.95 4239.43 4241.47 4245.42 4249.99 4247.33 4230.18 4225.26 4226.32 4219.62 4215.53 4216.7 4217.38 4217.79 4217.6 4217.21 4216.29 4215.24 4214.05 4205.41 4200.21 4201.92 4203.3 4204.5 4211.66 4216.58 4217.04 4213.76 4208.62 4218.6 4226.41 4229.97 4229.27 4226.44 4214.48 4205.35 4201.68 4197.14 4192.12 4186.69 4182.97 4182.61 4181.46 4179.88 4180.58 4182.55 4187.12 4188.9 4189.29 4190 4189.75 4187.62 4187.85 4189.31 4194.66 4204.91 4225.2 4234.04 4237.22 4242.95 4244.96 4239.42 4240.2 4244.14 4245.1 4246.46 4248.67 4249.44 4249.52 4234.82 4225.12 4225.07 4214.33 4198.25 4182 4170.62 4168.61 4165.83 4162.64 4158.52 4153.91 4148.23 4142.77 4137.37 4138.21 4138.99 4139.66 4139.74 4139.53 4134.9 4131.24 4129.44 4128.62 4128.28 4127.17 4126.09 4125.03 4125.77 4127.42 4129.09 4128.97 4125.28 4125.6 4127.94 4137.26 4143.34 4142.97 4143.27 4143.91 4151.02 4158.69 4167.58 4168.89 4166.42 4165.22 4168.86 4182.34 4184.94 4182.1 4170.98 4164.75 4168.12 4170.88 4173.36 4174.16 4175.39 4177.54 4175.76 4172.02 4168.3 4167.57 4172.83 4166.65 4154.75 4154.03 4159.87 4179.04 4182.81 4178.84 4185.28 4192.24 4200.34 4197.11 4188.24 4190.71
4048.06 4047.58 4047.34 4047.57 4047.71 4047.8 4047.95 4048.42 4049.55 4050.5 4051.38 4051.91 4052.53 4053.34 4053.77 4054 4054.45 4054.96 4055.64 4057.18 4059.16 4062 4065.09 4068.71 4071.36 4073.55 4076.97 4080.39 4083.84 4085.52 4086.33 4088.64 4090.98 4093.41 4094.68 4095.39 4094.6 4094.31 4095.02 4097.25 4100.26 4101.1 4102.4 4104.64 4105.47 4105.61 4106.37 4107.31 4108.62 4106.31 4102.19 4101.43 4099.99 4097.19 4098.97 4103.08 4103.34 4103.72 4104.37 4105.13 4105.97 4108.03 4109.57 4110.08 4110.18 4110.07 4110.01 4110.21 4110.96 4111.07 4110.88 4113.4 4115.07 4115.09 4115.38 4115.79 4115.67 4116.46 4119.1 4118.08 4115.23 4118.65 4121.3 4122.46 4123.14 4123.59 4124.79 4125.85 4126.63 4126.35 4125.54 4129.32 4131.65 4131.12 4131.41 4132.11 4135.62 4138.29 4139.28 4140 4140.58 4139.52 4139.21 4140.42 4141.42 4142.32 4141.37 4140.65 4140.33 4139.48 4138.37 4134.25 4131.17 4130.13 4130.28 4131 4131.12 4131.09 4130.73 4129.28 4127.27 4127.99 4126.83 4121.92 4117.79 4114.02 4109.16 4105.14 4102.66 4099.41 4095.73 4090.46 4085.36 4080.46 4076.37 4072.65 4068.95 4064.86 4059.9 4054.1 4047.86 4044.94 4042.31 4040.21 4038.42 4036.77 4039.4 4039.58 4034.9 4032.3 4030.74 4035.62 4038.78 4038.45 4039.38 4040.96 4035.74 4035.29 4044.43 4047.2 4046.84 4058.33 4065.21 4062.83 4056.82 4048.99 4045.49 4041.84 4037.78 4033.98 4030.27 4022.29 4014.55 4007.13 4001.52 3996.74 3986.18 3977.26 3971.36 3962.66 3952.51 3945.38 3937.33 3927.27 3919.51 3912.81 3904.9 3898.91 3896.59 3890.43 3882.29 3868.11 3857.05 3851.93 3851.37 3853.06 3871.27 3884.97 3889.58 3897.71 3907.72 3920.04 3932.41 3945.14 3953.9 3960.73 3965.02 3968.69 3971.19 3976.66 3983.73 3992.15 4000.21 4007.72 4020.44 4035.97 4033.58 4033.82 4039.34 4040.96 4040.65 4043.6 4051.29 4068.68 4081.17 4091.31 4105.28 4121.03 4140.61 4150.14 4154.68 4161.32 4166.69 4169.62 4180.98 4196.77 4226.77 4248.1 4251.67 4253.02 4253.26 4250.11 4247.62 4246.46 4246.88 4248.13 4252.52 4250.17 4234.35 4229.35 4229.63 4221.3 4215.14 4213.16 4213.46 4214.88 4217.81 4219.98 4220.76 4221.57 4222.41 4213.47 4208.75 4212.56 4214.52 4215.58 4223.69 4228.78 4227.83 4224.59 4220.24 4227.65 4232.9 4233.65 4232.05 4229.21 4216.24 4206.25 4201.9 4197.68 4193.5 4187.45 4183.32 4182.89 4182.4 4181.87 4184.21 4187.46 4192.68 4195.19 4196.38 4197.59 4197.85 4196.28 4196.69 4198.15 4206.24 4217.87 4236.9 4241.68 4239.2 4245.7 4248.43 4243.64 4244.52 4248.24 4248.86 4249.7 4250.99 4250.66 4249.52 4236.27 4226.94 4225.11 4213.85 4197.84 4181.32 4169.75 4167.64 4164.66 4161.2 4156.96 4152.42 4147.17 4142.04 4136.92 4137.82 4138.6 4139.13 4139.29 4139.27 4134.68 4131.04 4129.23 4128.39 4128.03 4127.05 4126.05 4125.03 4125.9 4127.73 4128.97 4128.5 4124.58 4125.55 4129.01 4137.84 4143.5 4142.82 4143.05 4143.74 4150.59 4158.43 4168.38 4169.67 4166.62 4165.27 4169.11 4183.5 4185.76 4181.93 4170.42 4163.99 4167.47 4170.17 4172.5 4173.35 4174.57 4176.55 4174.55 4170.56 4166.68 4165.94 4171.46 4165 4152.54 4151.49 4157.46 4177.74 4181.91 4178.01 4184.31 4191.22 4199.5 4195.62 4185.65 4187.93
4048.62 4048.44 4048.41 4048.67 4048.69 4048.58 4048.74 4049.17 4050.19 4051.12 4052.01 4052.61 4053.25 4053.99 4054.39 4054.63 4055.07 4055.61 4056.35 4057.87 4059.8 4062.3 4065.27 4069.22 4072 4074.22 4077.66 4081.08 4084.53 4086.2 4087.01 4089.13 4091.25 4093.41 4094.74 4095.67 4095.09 4094.86 4095.31 4097.6 4100.84 4101.42 4102.58 4104.92 4105.88 4106.16 4106.97 4107.94 4109.25 4107.26 4103.63 4102.35 4100.56 4097.71 4099.64 4103.98 4104.26 4104.67 4105.34 4106.26 4107.31 4109.48 4111.08 4111.57 4111.63 4111.46 4111.43 4111.65 4112.4 4113.4 4114.56 4117.14 4118.92 4119.12 4119.32 4119.5 4119.65 4120.66 4123.41 4122.38 4119.46 4122.87 4125.54 4126.77 4127.47 4127.91 4129.13 4130.2 4131.02 4130.77 4130.01 4134.48 4137.42 4137.33 4137.73 4138.38 4140.32 4141.96 4142.97 4143.67 4144.22 4144.49 4145.05 4146.21 4147.26 4148.25 4145.35 4143.3 4142.88 4142 4140.89 4137.87 4135.56 4134.62 4133.96 4133.42 4133.48 4133.38 4132.98 4131.5 4129.45 4130.72 4130.09 4125.65 4122.43 4119.8 4114.75 4109.99 4105.73 4101.9 4098.27 4092.53 4087.31 4082.95 4078.89 4074.93 4071.29 4066.75 4060.38 4055.47 4051.28 4048.25 4045.3 4042.47 4040.39 4038.67 4040.88 4041.72 4039.74 4038.33 4037.15 4039.07 4040.26 4039.95 4040.87 4042.41 4041.12 4042.09 4047.83 4052.51 4056.83 4063.85 4068.72 4069.12 4064.06 4056.19 4052.42 4048.14 4042.75 4038.55 4034.91 4024.13 4016.92 4016.37 4009.71 3999.8 3991.08 3982.12 3972.6 3964.44 3956.97 3949.83 3941.42 3930.31 3922.08 3915.22 3907.31 3901.56 3899.91 3892.56 3882.29 3872.02 3863.22 3857.26 3856.64 3858.7 3873.53 3884.97 3889.58 3897.5 3907.18 3923.31 3937.67 3948.76 3956.23 3961.96 3966.05 3969.66 3972.36 3979.54 3989.1 3999.46 4009.36 4018.47 4030.35 4043.73 4038.41 4038.16 4047.88 4050.61 4049.8 4051.49 4058.01 4074.37 4086 4095.39 4109.59 4125.07 4143.39 4152.54 4157.16 4164.41 4170.32 4173.62 4185.87 4202.84 4228.94 4246.73 4247.63 4247.07 4245.79 4243.65 4242.6 4243.71 4245.69 4248.13 4252.32 4249.9 4234.29 4227.77 4225.66 4219.72 4213.53 4206.89 4205.84 4207.63 4212.48 4216.65 4219.55 4221.28 4222.41 4222 4223.75 4230.09 4232.09 4231.88 4239.24 4243.11 4240.07 4238.97 4238.94 4240.01 4239.96 4237.57 4233.75 4229.21 4216.24 4206.25 4201.9 4198.23 4194.87 4188 4183.32 4182.89 4182.8 4182.9 4188.87 4194.65 4200.25 4203.71 4206.14 4208.5 4209.96 4209.68 4212.18 4216.11 4229.78 4242.31 4253.11 4251.31 4243.22 4247.3 4249.12 4246.34 4246.56 4248.24 4248.86 4249.7 4250.99 4250.66 4249.52 4237.72 4228.63 4224.76 4212.88 4197.01 4180.89 4169.58 4167.48 4164 4159.79 4155.32 4150.84 4146.23 4141.43 4136.49 4137.27 4137.87 4138.13 4138.42 4138.74 4134.19 4130.58 4128.75 4127.92 4127.57 4126.8 4125.97 4125.01 4125.94 4127.84 4128.54 4127.56 4123.18 4125.48 4131.17 4138.92 4143.66 4142.39 4142.54 4143.4 4150.18 4158.53 4170.14 4171.16 4166.85 4165.45 4169.75 4185.57 4187.2 4181.69 4170.19 4163.64 4166.76 4169.36 4171.75 4172.41 4173.44 4175.23 4173.56 4170.16 4166.29 4165.48 4170.79 4164.53 4152.48 4151.46 4157.32 4177.18 4181.25 4177.42 4183.5 4190.05 4197.68 4193.7 4183.9 4186.28
4049.17 4049.29 4049.47 4049.77 4049.67 4049.36 4049.52 4049.92 4050.83 4051.73 4052.63 4053.3 4053.97 4054.63 4055.01 4055.25 4055.69 4056.25 4057.05 4058.56 4060.44 4062.6 4065.45 4069.73 4072.64 4074.88 4078.34 4081.78 4085.21 4086.88 4087.68 4089.61 4091.52 4093.41 4094.8 4095.95 4095.58 4095.4 4095.59 4097.95 4101.42 4101.73 4102.75 4105.2 4106.29 4106.7 4107.56 4108.56 4109.87 4108.21 4105.05 4103.26 4101.12 4098.23 4100.3 4104.88 4105.17 4105.6 4106.29 4107.37 4108.65 4110.91 4112.57 4113.05 4113.06 4112.84 4112.83 4113.08 4113.83 4115.72 4118.2 4120.85 4122.73 4123.12 4123.22 4123.18 4123.6 4124.82 4127.68 4126.65 4123.65 4127.05 4129.73 4131.04 4131.76 4132.2 4133.43 4134.53 4135.37 4135.17 4134.44 4139.6 4143.15 4143.5 4144.01 4144.6 4145 4145.61 4146.63 4147.31 4147.84 4149.43 4150.85 4151.97 4153.05 4154.14 4149.31 4145.94 4145.4 4144.49 4143.38 4141.47 4139.92 4139.07 4137.6 4135.81 4135.81 4135.66 4135.21 4133.69 4131.62 4133.43 4133.32 4129.36 4127.05 4125.53 4120.3 4114.83 4108.75 4104.36 4100.78 4094.59 4089.23 4085.43 4081.39 4077.2 4073.6 4068.64 4060.84 4056.83 4054.67 4051.54 4048.28 4044.7 4042.34 4040.56 4042.36 4043.81 4044.59 4044.32 4043.52 4042.5 4041.73 4041.44 4042.34 4043.86 4046.44 4048.9 4051.16 4057.81 4066.76 4069.36 4072.16 4075.41 4071.24 4063.35 4059.31 4054.41 4047.67 4043.08 4039.52 4025.97 4019.18 4025.66 4017.81 4002.82 3995.94 3986.99 3973.78 3966.23 3961.4 3954.26 3945.49 3933.3 3924.63 3917.61 3909.71 3904.17 3903.22 3894.66 3882.29 3875.87 3869.37 3862.54 3861.88 3864.29 3875.79 3884.97 3889.58 3897.28 3906.65 3926.52 3942.91 3952.33 3958.53 3963.18 3967.07 3970.62 3973.53 3982.42 3994.42 4006.72 4018.45 4029.2 4040.2 4051.45 4043.22 4042.41 4056.43 4060.22 4058.9 4059.35 4064.7 4080.01 4090.8 4099.43 4113.86 4129.09 4146.14 4154.92 4159.62 4167.48 4173.91 4177.59 4190.73 4208.87 4231.13 4245.4 4243.6 4241.18 4238.42 4237.26 4237.62 4241.02 4244.52 4248.13 4252.12 4249.64 4234.22 4226.19 4221.74 4218.15 4212 4200.64 4198.32 4200.47 4207.2 4213.34 4218.37 4220.99 4222.41 4230.41 4238.68 4247.62 4249.62 4248.15 4254.75 4257.41 4252.23 4253.34 4257.62 4252.36 4247.02 4241.41 4235.43 4229.21 4216.24 4206.25 4201.9 4198.77 4196.23 4188.54 4183.32 4182.89 4183.21 4183.91 4193.46 4201.79 4207.77 4212.18 4215.86 4219.35 4222.01 4223.06 4227.64 4234.06 4253.31 4266.91 4269.17 4260.85 4247.21 4248.91 4249.78 4249.04 4248.57 4248.24 4248.86 4249.7 4250.99 4250.66 4249.52 4239.15 4230.33 4224.39 4211.93 4196.19 4180.45 4169.4 4167.32 4163.35 4158.4 4153.7 4149.28 4145.3 4140.83 4136.06 4136.73 4137.16 4137.14 4137.57 4138.22 4133.72 4130.13 4128.29 4127.45 4127.11 4126.55 4125.88 4124.99 4125.99 4127.95 4128.12 4126.63 4121.8 4125.42 4133.32 4140 4143.82 4141.96 4142.02 4143.06 4149.78 4158.62 4171.9 4172.63 4167.08 4165.64 4170.37 4187.64 4188.62 4181.45 4169.96 4163.3 4166.04 4168.56 4171 4171.47 4172.32 4173.92 4172.58 4169.77 4165.9 4165.02 4170.12 4164.06 4152.41 4151.43 4157.18 4176.62 4180.6 4176.83 4182.69 4188.89 4195.88 4191.8 4182.17 4184.64
4049.75 4049.89 4050.07 4050.35 4050.23 4049.91 4049.81 4050.12 4051.25 4052.22 4053.12 4053.47 4053.96 4054.72 4055.15 4055.41 4055.84 4056.46 4057.45 4059.02 4060.91 4063.37 4066.23 4069.9 4072.76 4075.22 4078.62 4082 4085.42 4087.08 4087.88 4089.44 4091.37 4094.07 4095.47 4096.25 4095.79 4095.57 4095.79 4098.14 4101.59 4101.91 4102.91 4105.25 4106.35 4106.84 4107.75 4108.8 4110.14 4108.55 4105.47 4103.62 4101.48 4098.75 4100.84 4105.36 4105.64 4106.06 4106.76 4107.98 4109.48 4111.84 4113.55 4114 4113.98 4113.72 4114.55 4115.37 4116.17 4117.47 4119.05 4121.89 4123.85 4124.08 4124.25 4124.4 4126.3 4128.14 4129.82 4129.08 4127.1 4129.35 4131.68 4134.29 4135.45 4135.93 4137.17 4138.54 4140.24 4140.46 4139.95 4143.45 4145.94 4146.5 4147.02 4147.52 4148 4148.65 4149.66 4150.25 4150.64 4152.31 4153.79 4154.91 4155.75 4156.46 4152.03 4148.9 4148.3 4147.3 4146.09 4144.19 4142.33 4140.48 4138.75 4137.05 4137.09 4137.06 4136.9 4136.29 4135.44 4135.47 4134.45 4131.4 4128.68 4126.14 4121.29 4116.13 4110.2 4105.6 4101.62 4096.56 4092.01 4088.38 4084.75 4081.07 4076.45 4071.26 4064.92 4061.11 4058.54 4054.47 4050.82 4047.99 4046 4044.42 4043.91 4043.81 4044.59 4044.32 4043.52 4044.9 4046.05 4046.72 4047.93 4049.45 4052.32 4055.02 4057.45 4064.75 4074.58 4076.51 4078.8 4081.88 4077.68 4069.83 4061.91 4055.18 4050.86 4047.08 4043.57 4031.83 4025.54 4029.83 4020.95 4005.48 3997 3988.11 3978.35 3969.61 3961.4 3954.26 3946.31 3936.65 3927.79 3919.29 3911.44 3905.6 3903.56 3895.95 3885.47 3877.15 3869.38 3862.59 3863.32 3867.78 3879.08 3888.33 3893.56 3901.53 3910.98 3928.28 3942.94 3952.44 3962.83 3973.7 3980.42 3984.51 3983.19 3988.84 3998.06 4017.29 4033.3 4042.7 4049.68 4055.58 4051.67 4051.53 4058.67 4064.2 4068.82 4071.46 4076.83 4087.6 4096 4103.24 4116.74 4131.7 4149.91 4157.6 4160.1 4166.94 4172.93 4177.35 4190.07 4207.2 4230.45 4245.4 4243.6 4241.18 4238.42 4237.26 4237.62 4241.02 4243.65 4245.94 4248.93 4246.15 4231.9 4223.78 4218.65 4216.91 4212 4200.64 4196.78 4196.64 4205.7 4213.39 4218.39 4221.08 4222.65 4231.35 4240.16 4249.33 4253.15 4254.3 4257.23 4258.5 4256.66 4256.45 4257.15 4252.62 4248.16 4243.75 4238.82 4233.58 4219.45 4208.21 4202.38 4198.77 4196.23 4190.62 4186.86 4186.67 4187.89 4189.81 4197.9 4208.66 4225.31 4234.71 4240.65 4236.51 4234.15 4235.51 4239.37 4244.55 4266.06 4280.53 4280.7 4268.75 4250.8 4250.35 4249.78 4249.04 4248.57 4248.24 4248.86 4249.7 4250.99 4251.45 4251.48 4242.05 4233.31 4225.64 4211.99 4195.31 4178.98 4167.56 4165.54 4161.77 4157.11 4152.21 4147.67 4143.77 4139.8 4135.73 4136.29 4136.69 4136.83 4137.24 4137.8 4133.33 4129.75 4127.89 4127.05 4126.7 4126.11 4125.52 4124.93 4125.9 4127.66 4127.47 4126.07 4122.27 4126.4 4134.57 4140.51 4143.95 4142.49 4142.74 4143.86 4149.52 4157.96 4172.21 4173.03 4167.14 4165.6 4170.26 4187.52 4188.45 4181.19 4169.97 4163.45 4166.07 4168.36 4170.51 4171.11 4172.04 4173.67 4172.49 4169.89 4165.61 4164.42 4169.39 4163.6 4152.41 4151.1 4156.71 4176.44 4180.39 4176.46 4181.68 4187.47 4194.53 4191.01 4182.17 4183.76
4050.34 4050.5 4050.68 4050.94 4050.81 4050.47 4050.11 4050.32 4051.67 4052.71 4053.61 4053.65 4053.95 4054.81 4055.29 4055.58 4056 4056.66 4057.84 4059.49 4061.38 4064.15 4067.01 4070.08 4072.88 4075.57 4078.9 4082.23 4085.63 4087.28 4088.08 4089.27 4091.22 4094.72 4096.15 4096.54 4096.01 4095.74 4095.98 4098.33 4101.76 4102.1 4103.07 4105.31 4106.42 4106.98 4107.94 4109.04 4110.42 4108.89 4105.9 4103.98 4101.85 4099.28 4101.38 4105.84 4106.12 4106.53 4107.23 4108.6 4110.32 4112.77 4114.54 4114.97 4114.91 4114.61 4116.29 4117.69 4118.52 4119.23 4119.9 4122.94 4124.98 4125.05 4125.29 4125.63 4129.05 4131.49 4132 4131.54 4130.59 4131.66 4133.66 4137.55 4139.19 4139.7 4140.95 4142.62 4145.16 4145.82 4145.53 4147.33 4148.77 4149.54 4150.07 4150.48 4151.03 4151.73 4152.71 4153.21 4153.47 4155.22 4156.76 4157.9 4158.48 4158.8 4154.78 4151.9 4151.23 4150.14 4148.83 4146.95 4144.76 4141.92 4139.91 4138.3 4138.39 4138.49 4138.6 4138.91 4139.3 4137.52 4135.61 4133.44 4130.35 4126.76 4122.3 4117.44 4111.66 4106.85 4102.47 4098.55 4094.82 4091.37 4088.14 4084.99 4079.32 4073.94 4069.03 4065.44 4062.46 4057.42 4053.39 4051.3 4049.7 4048.33 4045.47 4043.81 4044.59 4044.32 4043.52 4047.34 4050.44 4052.05 4053.59 4055.12 4058.28 4061.24 4063.83 4071.77 4082.51 4083.75 4085.53 4088.44 4084.21 4076.4 4064.51 4056 4054.05 4051.12 4047.67 4037.78 4031.96 4034.08 4024.13 4008.16 3998.06 3989.29 3982.92 3973.05 3961.4 3954.26 3947.17 3940.01 3930.99 3921 3913.2 3907.02 3903.93 3897.24 3888.69 3878.42 3869.39 3862.64 3864.76 3871.32 3882.41 3891.73 3897.59 3905.82 3915.36 3930.04 3942.96 3952.55 3967.13 3984.37 3994.01 3998.58 3993.04 3995.37 4001.74 4028.06 4048.4 4056.44 4059.34 4059.77 4060.26 4060.69 4061.02 4068.2 4078.89 4083.77 4089.09 4095.36 4101.27 4107.09 4119.64 4134.35 4153.72 4160.33 4160.59 4166.4 4171.94 4177.09 4189.4 4205.52 4229.77 4245.4 4243.6 4241.18 4238.42 4237.26 4237.62 4241.02 4242.77 4243.73 4245.71 4242.66 4229.55 4221.36 4215.55 4215.67 4212 4200.64 4195.24 4192.78 4204.2 4213.45 4218.4 4221.17 4222.88 4232.3 4241.67 4251.04 4256.71 4260.54 4259.71 4259.63 4261.1 4259.62 4256.68 4252.89 4249.33 4246.11 4242.24 4237.99 4222.69 4210.18 4202.88 4198.77 4196.23 4192.73 4190.45 4190.5 4192.62 4195.79 4202.38 4215.75 4243.03 4257.69 4265.97 4253.92 4246.48 4248.16 4251.3 4255.2 4279.03 4294.34 4292.43 4276.8 4254.43 4251.79 4249.78 4249.04 4248.57 4248.24 4248.86 4249.7 4250.99 4252.24 4253.46 4245 4236.3 4226.93 4212.06 4194.42 4177.5 4165.71 4163.73 4160.18 4155.81 4150.7 4146.05 4142.23 4138.75 4135.4 4135.84 4136.23 4136.51 4136.91 4137.37 4132.93 4129.37 4127.49 4126.64 4126.3 4125.67 4125.16 4124.87 4125.81 4127.38 4126.82 4125.52 4122.74 4127.4 4135.84 4141.02 4144.09 4143.02 4143.46 4144.66 4149.26 4157.31 4172.51 4173.43 4167.2 4165.56 4170.15 4187.4 4188.26 4180.91 4169.98 4163.6 4166.1 4168.15 4170 4170.74 4171.77 4173.41 4172.39 4170.01 4165.31 4163.81 4168.65 4163.13 4152.41 4150.76 4156.25 4176.25 4180.19 4176.08 4180.64 4186.02 4193.16 4190.2 4182.17 4182.86
4050.74 4050.87 4051.04 4051.29 4051.14 4050.8 4050.3 4050.42 4051.76 4052.89 4053.92 4053.8 4054.06 4055.07 4055.51 4055.66 4056.06 4056.76 4058.07 4059.75 4061.63 4064.58 4067.44 4070.16 4072.83 4075.5 4078.77 4082.13 4085.73 4087.44 4088.22 4089.16 4091.1 4095.06 4096.58 4096.89 4096.24 4095.88 4096.06 4098.42 4101.89 4102.33 4103.31 4105.41 4106.5 4107.08 4108.11 4109.25 4110.68 4109.07 4105.91 4103.96 4101.92 4099.65 4101.8 4106.19 4106.57 4107.06 4107.76 4109.21 4111.05 4113.54 4115.32 4115.72 4115.97 4116.16 4117.89 4119.32 4120.17 4121.06 4121.98 4124.93 4126.99 4127.32 4127.47 4127.53 4131.27 4133.73 4133.66 4133.37 4132.97 4133.94 4135.87 4139.77 4141.39 4141.88 4143.54 4145.46 4147.97 4148.28 4147.46 4148.37 4149.67 4151.81 4152.75 4153.11 4153.56 4154.16 4155.05 4155.06 4154.62 4157.03 4158.97 4160.05 4160.06 4159.5 4156.07 4153.65 4153.23 4151.56 4149.21 4147.85 4145.98 4143.12 4141.2 4139.74 4139.81 4139.9 4140.06 4140.46 4140.96 4138.36 4135.98 4133.98 4130.82 4127.07 4122.8 4118.09 4112.38 4107.82 4103.8 4100.44 4097.16 4093.99 4091.07 4088.26 4082.65 4077.32 4072.45 4068.83 4065.79 4060.13 4055.6 4053.17 4051.73 4050.77 4047.63 4045.82 4046.68 4046.5 4045.79 4049.81 4053.07 4054.81 4056.99 4059.43 4063.11 4066.43 4069.11 4076.55 4086.44 4089.04 4091.61 4094.29 4089.5 4080.94 4071.36 4065.18 4065.85 4064.56 4062.32 4049.83 4041.18 4039.63 4028.27 4011.97 4000.39 3990.95 3985.48 3975.61 3963.53 3956.44 3949.78 3943.8 3934.67 3923.91 3915.81 3909.06 3904.79 3898.16 3890.29 3881.41 3873.23 3866.35 3869.26 3877.11 3886.62 3894.96 3900.98 3909.45 3919.27 3935.27 3948.96 3958.24 3974.62 3994.85 4006.34 4012.52 4008.23 4008.31 4010.55 4037.81 4059.04 4067.93 4069.14 4066.52 4069.12 4069.67 4066.08 4073.59 4086.78 4094.28 4101.26 4107.43 4112.27 4116.5 4126.69 4139.21 4156.48 4162.21 4162.15 4167.15 4172.24 4177.57 4189.4 4204.68 4229.91 4246.13 4244.17 4241.49 4238.4 4237.25 4237.3 4239.7 4239.51 4237.96 4241.13 4238.62 4224.84 4216.99 4212.04 4211.34 4207.71 4198.13 4193.31 4190.87 4202.01 4211.15 4216.3 4221.2 4226.12 4235.74 4244.72 4252.46 4258.46 4263.63 4262.27 4262.28 4265.07 4263.29 4259.22 4254.66 4250.77 4248.07 4244.66 4240.85 4226.76 4215.71 4210.59 4207.29 4204.92 4203.85 4201.69 4197.29 4197.21 4199.2 4204.77 4219.87 4254.73 4275.35 4289.07 4280.35 4272.37 4265.79 4265.46 4268.13 4288.52 4301.52 4299.43 4281.7 4256.23 4252.5 4250.03 4250.06 4249.86 4249.56 4249.91 4250.4 4251.16 4252.51 4254.15 4247.01 4238.54 4227.28 4211.47 4193.33 4176.1 4164.12 4162.17 4158.74 4154.55 4149.23 4144.57 4141.13 4137.91 4134.78 4135.32 4135.79 4136.13 4136.56 4137.03 4132.61 4129.06 4127.16 4126.3 4125.95 4125.27 4124.79 4124.69 4125.44 4126.61 4126.25 4125.45 4123.81 4128.8 4137.17 4141.44 4144.1 4143.53 4143.65 4144.09 4148.63 4156.92 4172.95 4173.9 4167.3 4165.49 4170 4187.32 4188.17 4180.78 4169.46 4162.94 4165.78 4167.92 4169.76 4170.33 4171.27 4172.95 4172.01 4169.75 4164.82 4163.22 4168.22 4162.9 4152.41 4150.75 4156.2 4176.09 4179.73 4175.22 4179.86 4185.31 4192.49 4189.62 4181.71 4182.23
4050.94 4051.01 4051.14 4051.4 4051.25 4050.9 4050.39 4050.42 4051.53 4052.76 4054.06 4053.96 4054.28 4055.49 4055.81 4055.67 4056.05 4056.76 4058.12 4059.8 4061.67 4064.66 4067.51 4070.14 4072.6 4075.01 4078.25 4081.73 4085.73 4087.55 4088.28 4089.11 4091.01 4095.08 4096.77 4097.28 4096.49 4095.98 4096.02 4098.4 4101.98 4102.61 4103.65 4105.56 4106.58 4107.17 4108.25 4109.45 4110.94 4109.08 4105.52 4103.58 4101.7 4099.86 4102.1 4106.4 4107.01 4107.65 4108.37 4109.83 4111.69 4114.16 4115.91 4116.28 4117.19 4118.42 4119.37 4120.29 4121.14 4122.97 4125.34 4127.91 4129.95 4130.93 4130.81 4130.12 4132.99 4134.89 4134.85 4134.62 4134.29 4136.22 4138.34 4140.97 4142.1 4142.49 4144.97 4147.13 4148.72 4147.86 4145.76 4146.59 4148.68 4153.31 4155.12 4155.49 4155.65 4155.98 4156.7 4155.82 4154.11 4157.75 4160.46 4161.43 4160.49 4158.58 4155.9 4154.18 4154.33 4151.55 4147.26 4146.89 4146.02 4144.12 4142.66 4141.4 4141.37 4141.33 4141.29 4140.96 4140.46 4138.04 4135.58 4133.01 4130.12 4127.07 4122.8 4118.09 4112.38 4108.56 4105.64 4102.25 4099.08 4096.3 4093.61 4090.93 4086.52 4081.5 4075.23 4071.33 4068.6 4062.66 4057.46 4053.65 4052.13 4051.78 4050.46 4049.91 4050.92 4050.91 4050.39 4052.34 4054 4055.05 4058.2 4062.48 4066.88 4070.69 4073.41 4079.15 4086.44 4092.44 4097.17 4099.54 4093.63 4083.54 4082.59 4083.07 4086.58 4087.86 4088.02 4068.39 4053.32 4046.69 4033.47 4017.01 4004.06 3993.17 3986.04 3977.33 3967.83 3960.86 3954.21 3948.06 3938.87 3928.11 3919.34 3911.72 3906.19 3898.74 3890.29 3886.14 3880.98 3873.83 3876.96 3885.28 3891.82 3898.09 3903.81 3912.48 3922.77 3944.07 3961.09 3969.69 3985.54 4005.32 4017.59 4026.64 4029.14 4027.94 4024.72 4046.69 4065.4 4077.35 4079.23 4076.01 4078.4 4078.52 4074.09 4080.56 4092.6 4103.12 4113.6 4124.13 4129.29 4131.71 4138.12 4146.32 4158.32 4163.27 4164.81 4169.24 4173.82 4178.78 4190.06 4204.68 4230.84 4247.59 4245.34 4242.11 4238.35 4237.23 4236.62 4237.06 4233.75 4228.53 4235.07 4233.96 4217.72 4210.62 4208.06 4203.87 4199.14 4193.03 4190.96 4190.87 4199.12 4206.47 4212.03 4221.22 4232.43 4241.76 4249.35 4253.65 4258.46 4263.63 4264.97 4266.52 4268.64 4267.52 4264.81 4257.97 4252.52 4249.65 4246.11 4242.21 4231.71 4225.03 4225.69 4224.61 4222.58 4224.28 4220.81 4207.31 4201.73 4200.1 4205.13 4221.28 4260.33 4288.02 4310.31 4316.59 4312.62 4289.1 4282.18 4283.62 4294.73 4302.12 4301.8 4283.48 4256.23 4252.5 4250.55 4252.1 4252.46 4252.23 4252.02 4251.78 4251.52 4252.27 4253.55 4248.1 4240.03 4226.73 4210.19 4192.02 4174.77 4162.77 4160.81 4157.42 4153.3 4147.78 4143.22 4140.45 4137.27 4133.85 4134.7 4135.37 4135.7 4136.19 4136.76 4132.36 4128.8 4126.88 4126.01 4125.66 4124.91 4124.41 4124.39 4124.77 4125.35 4125.74 4125.88 4125.49 4130.63 4138.58 4141.82 4143.99 4144.02 4143.29 4142.15 4147.64 4156.79 4173.51 4174.44 4167.43 4165.4 4169.81 4187.27 4188.17 4180.78 4168.41 4161.47 4165.1 4167.68 4169.76 4169.88 4170.55 4172.28 4171.35 4169.08 4164.13 4162.65 4168.07 4162.9 4152.41 4151.08 4156.57 4175.95 4179 4173.87 4179.32 4185.31 4192.49 4189.25 4180.78 4181.86
4051.15 4051.15 4051.25 4051.51 4051.36 4051.01 4050.47 4050.41 4051.3 4052.63 4054.2 4054.11 4054.51 4055.92 4056.11 4055.68 4056.04 4056.75 4058.17 4059.86 4061.7 4064.74 4067.58 4070.12 4072.38 4074.52 4077.73 4081.32 4085.74 4087.66 4088.35 4089.07 4090.93 4095.1 4096.96 4097.67 4096.75 4096.09 4095.98 4098.39 4102.08 4102.88 4103.98 4105.7 4106.66 4107.25 4108.39 4109.65 4111.19 4109.08 4105.13 4103.21 4101.47 4100.07 4102.39 4106.61 4107.44 4108.23 4108.96 4110.45 4112.33 4114.77 4116.5 4116.83 4118.41 4120.65 4120.84 4121.24 4122.09 4124.88 4128.67 4130.86 4132.86 4134.52 4134.12 4132.69 4134.71 4136.05 4136.03 4135.85 4135.6 4138.47 4140.82 4142.16 4142.8 4143.09 4146.39 4148.79 4149.45 4147.45 4144.09 4144.82 4147.67 4154.84 4157.47 4157.85 4157.71 4157.8 4158.34 4156.56 4153.6 4158.45 4161.94 4162.79 4160.91 4157.66 4155.73 4154.7 4155.42 4151.54 4145.32 4145.95 4146.05 4145.11 4144.1 4143.04 4142.91 4142.74 4142.51 4141.44 4139.95 4137.71 4135.19 4132.04 4129.43 4127.07 4122.8 4118.09 4112.38 4109.29 4107.47 4104.03 4100.98 4098.6 4096.12 4093.57 4090.34 4085.66 4077.97 4073.82 4071.39 4065.17 4059.33 4054.1 4052.54 4052.78 4053.26 4053.96 4055.12 4055.29 4054.96 4054.86 4054.92 4055.27 4059.41 4065.5 4070.62 4074.92 4077.67 4081.71 4086.44 4095.79 4102.69 4104.76 4097.72 4086.11 4093.71 4100.9 4107.37 4111.21 4113.79 4086.99 4065.49 4053.64 4038.64 4022.01 4007.71 3995.38 3986.58 3979.06 3972.11 3965.24 3958.61 3952.29 3943.04 3932.27 3922.85 3914.37 3907.56 3899.31 3890.29 3890.81 3888.69 3881.26 3884.61 3893.41 3897.01 3901.19 3906.61 3915.49 3926.25 3952.79 3973.18 3981.07 3996.4 4015.75 4028.79 4040.63 4050.16 4047.54 4038.85 4055.56 4071.67 4086.77 4089.26 4085.44 4087.64 4087.33 4082.03 4087.48 4098.39 4111.88 4125.82 4140.86 4146.27 4146.89 4149.52 4153.45 4160.07 4164.33 4167.45 4171.32 4175.4 4179.98 4190.7 4204.68 4231.75 4249.04 4246.5 4242.72 4238.3 4237.22 4235.98 4234.43 4228.05 4219.23 4229.07 4229.38 4210.66 4204.34 4204.12 4196.51 4190.63 4188.03 4188.64 4190.87 4196.28 4201.84 4207.82 4221.28 4238.71 4247.73 4253.99 4254.79 4258.46 4263.63 4267.62 4270.74 4272.16 4271.73 4270.37 4261.27 4254.25 4251.22 4247.56 4243.55 4236.61 4234.21 4240.82 4241.9 4240.21 4244.69 4240.04 4217.18 4206.2 4200.98 4205.49 4222.63 4265.95 4300.69 4331.56 4352.99 4353.46 4312.21 4298.86 4299.08 4300.96 4302.7 4304.17 4285.23 4256.23 4252.5 4251.05 4254.14 4255.05 4254.87 4254.11 4253.17 4251.86 4252.04 4252.97 4249.16 4241.53 4226.16 4208.93 4190.72 4173.45 4161.44 4159.46 4156.12 4152.07 4146.35 4141.87 4139.77 4136.63 4132.94 4134.09 4134.95 4135.26 4135.82 4136.5 4132.1 4128.55 4126.61 4125.73 4125.36 4124.55 4124.02 4124.09 4124.11 4124.1 4125.24 4126.29 4127.17 4132.44 4139.98 4142.19 4143.87 4144.51 4142.93 4140.22 4146.65 4156.65 4174.08 4174.96 4167.55 4165.31 4169.62 4187.23 4188.17 4180.78 4167.37 4160 4164.44 4167.44 4169.76 4169.44 4169.83 4171.62 4170.7 4168.43 4163.45 4162.09 4167.93 4162.9 4152.41 4151.4 4156.94 4175.8 4178.27 4172.53 4178.78 4185.31 4192.49 4188.88 4179.86 4181.49
4051.7 4051.66 4051.73 4052.01 4051.86 4051.48 4051.13 4051.18 4052.06 4053.24 4054.59 4054.29 4054.62 4056.21 4056.57 4056.33 4056.24 4056.71 4058.33 4060.06 4061.87 4064.86 4067.81 4070.71 4073 4075.02 4078.21 4081.71 4085.89 4087.73 4088.41 4089.24 4091.13 4095.17 4097.17 4098.15 4097.01 4096.24 4096.22 4098.57 4102.13 4102.9 4104.11 4106.2 4107.05 4107.29 4108.49 4109.76 4111.16 4109.42 4106.08 4103.96 4102.21 4101.22 4103.59 4107.69 4108.31 4108.97 4109.73 4111.36 4113.44 4115.85 4117.54 4117.82 4119.26 4121.29 4121.58 4122.06 4122.92 4125.61 4129.25 4131.44 4133.22 4134.17 4133.93 4133.07 4135.02 4136.3 4136.27 4136.12 4135.89 4137.71 4139.48 4141.2 4141.91 4142.14 4145.52 4147.99 4148.63 4147.1 4144.44 4145.15 4147.25 4152.09 4153.64 4153.54 4153.48 4153.59 4154.03 4152.91 4150.99 4154.52 4157.12 4157.98 4157.15 4155.45 4154.23 4153.4 4153.32 4150.04 4145.12 4145.39 4145.3 4144.5 4143.62 4142.68 4142.6 4142.44 4142.08 4141.16 4139.95 4137.71 4135.26 4132.33 4129.62 4127 4123.1 4118.78 4113.53 4110.65 4108.92 4105.58 4102.33 4099.2 4096.52 4094.05 4090.77 4086.58 4080.54 4076.89 4074.42 4068.28 4063.01 4059.43 4058.16 4058.07 4057.56 4057.56 4058.6 4058.54 4057.92 4058.15 4059.02 4061.24 4064.79 4069.1 4074.01 4078.2 4081.03 4085.3 4090.36 4097.76 4103.98 4108.05 4105.83 4100.39 4109.33 4118.25 4127.31 4124.66 4116.35 4092.29 4071.18 4055.02 4039.99 4025.36 4012.16 4000.02 3989.57 3981.57 3974.72 3967.63 3961.21 3956.02 3948.29 3939.23 3932.16 3924.7 3916.17 3909.28 3903.06 3902.87 3901.01 3895.84 3896.92 3901.24 3905.86 3911.24 3918.23 3927.3 3937.56 3961.95 3981.03 3989.42 4001.53 4015.75 4028.79 4043.99 4064.04 4068.41 4064.98 4072.39 4081.62 4094.93 4096.98 4093.37 4098.3 4099.51 4093.19 4097.15 4106.33 4119.76 4132.14 4142.41 4146.27 4146.89 4148.55 4151.99 4159.07 4163.83 4167.48 4171.21 4175.11 4179.41 4189.58 4202.84 4231 4249.04 4246.5 4241.21 4234.55 4233.18 4231.8 4230.38 4225.48 4218.78 4216.7 4209.5 4192.36 4184.51 4181.26 4179.55 4179.81 4184.07 4187.19 4189.86 4194.1 4199.29 4206.57 4220.05 4236.88 4247.27 4255.09 4257.87 4262.4 4267.89 4269.52 4270.98 4272.22 4272.28 4271.75 4262.58 4255.28 4251.47 4248.99 4247.11 4240.98 4238.15 4241.79 4243.97 4245.38 4246.77 4243.25 4230.22 4224.14 4221.52 4225.9 4242.11 4282.74 4315.81 4345.48 4362.61 4360.86 4321.75 4304.96 4299.08 4303.43 4306.01 4304.98 4289.08 4265.69 4259.71 4256.57 4259.09 4258.26 4255.78 4254.48 4253.39 4252.73 4252.69 4252.97 4249.66 4241.92 4225.17 4208.09 4190.72 4172.67 4160.04 4157.77 4154.36 4150.35 4145.27 4141.05 4138.42 4135.72 4132.94 4133.74 4134.41 4134.84 4135.41 4136.07 4131.68 4128.01 4125.65 4124.63 4124.25 4123.91 4123.52 4122.97 4123.15 4123.67 4125.28 4126.96 4128.82 4133.73 4140.26 4143.23 4145.03 4144.45 4142.95 4140.95 4147.21 4157.01 4174.11 4174.67 4166.94 4164.88 4169.35 4187.08 4188.04 4180.59 4167.29 4159.79 4163.55 4166.57 4169.23 4168.81 4169.07 4170.69 4170.11 4168.43 4163.45 4162.12 4168.07 4162.69 4151.63 4149.9 4154.84 4173.35 4176.81 4172.71 4178.68 4185.07 4192.43 4188.88 4179.86 4180.54
4052.26 4052.17 4052.22 4052.52 4052.36 4051.97 4051.79 4051.96 4052.82 4053.85 4054.98 4054.48 4054.74 4056.5 4057.04 4056.98 4056.44 4056.68 4058.5 4060.27 4062.03 4065 4068.04 4071.3 4073.63 4075.53 4078.69 4082.1 4086.05 4087.81 4088.48 4089.42 4091.33 4095.24 4097.38 4098.64 4097.27 4096.38 4096.46 4098.75 4102.18 4102.92 4104.23 4106.71 4107.44 4107.32 4108.6 4109.86 4111.13 4109.75 4107.04 4104.71 4102.97 4102.37 4104.8 4108.77 4109.19 4109.72 4110.51 4112.28 4114.56 4116.93 4118.58 4118.83 4120.11 4121.93 4122.33 4122.89 4123.76 4126.35 4129.83 4132.03 4133.57 4133.82 4133.73 4133.46 4135.32 4136.55 4136.53 4136.38 4136.18 4136.94 4138.13 4140.22 4141.02 4141.17 4144.65 4147.17 4147.81 4146.74 4144.8 4145.49 4146.79 4149.35 4149.79 4149.19 4149.21 4149.34 4149.68 4149.23 4148.36 4150.54 4152.27 4153.13 4153.35 4153.23 4152.72 4152.09 4151.2 4148.53 4144.92 4144.83 4144.55 4143.89 4143.13 4142.31 4142.29 4142.12 4141.65 4140.88 4139.95 4137.71 4135.33 4132.61 4129.81 4126.94 4123.41 4119.49 4114.69 4112.02 4110.38 4107.13 4103.7 4099.81 4096.93 4094.53 4091.19 4087.53 4083.11 4079.99 4077.49 4071.42 4066.76 4064.81 4063.86 4063.41 4061.9 4061.2 4062.12 4061.82 4060.92 4061.47 4063.19 4067.27 4070.25 4072.73 4077.44 4081.52 4084.42 4088.94 4094.32 4099.74 4105.32 4111.35 4114.01 4114.91 4125.22 4135.95 4147.61 4138.41 4118.95 4097.67 4076.9 4056.47 4041.36 4028.76 4016.68 4004.7 3992.61 3984.12 3977.35 3970.03 3963.85 3959.78 3953.6 3946.29 3941.62 3935.15 3924.93 3919.38 3916.05 3915.13 3913.55 3910.65 3909.46 3909.17 3914.85 3921.47 3930.02 3939.3 3949.05 3971.23 3988.98 3997.89 4006.75 4015.75 4028.79 4047.52 4078.01 4089.66 4091.72 4089.47 4091.69 4103.24 4104.81 4101.4 4109.14 4111.87 4104.54 4106.99 4114.39 4127.75 4138.47 4144.03 4146.27 4146.89 4147.57 4150.51 4158.05 4163.33 4167.51 4171.1 4174.82 4178.85 4188.44 4200.98 4230.25 4249.04 4246.5 4239.7 4230.77 4229.12 4227.6 4226.31 4222.88 4218.32 4204.21 4189.62 4174.02 4164.7 4158.43 4162.59 4169.04 4179.99 4185.73 4188.84 4191.9 4196.74 4205.29 4218.81 4235.03 4246.8 4256.23 4260.96 4266.39 4272.2 4271.42 4271.22 4272.28 4272.84 4273.14 4263.91 4256.3 4251.73 4250.43 4250.72 4245.4 4242.1 4242.8 4246.05 4250.6 4248.85 4246.62 4243.35 4242.39 4242.47 4246.71 4261.92 4299.87 4331.19 4359.64 4372.34 4368.38 4331.4 4311.19 4299.08 4305.93 4309.33 4305.83 4292.94 4275.3 4267 4262.15 4264.11 4261.53 4256.69 4254.84 4253.61 4253.61 4253.35 4252.97 4250.16 4242.28 4224.2 4207.23 4190.72 4171.87 4158.63 4156.07 4152.59 4148.61 4144.18 4140.21 4137.06 4134.79 4132.94 4133.4 4133.87 4134.41 4135 4135.63 4131.26 4127.46 4124.69 4123.52 4123.13 4123.28 4123 4121.85 4122.17 4123.22 4125.31 4127.65 4130.48 4135.05 4140.54 4144.28 4146.18 4144.41 4142.97 4141.69 4147.79 4157.36 4174.14 4174.37 4166.32 4164.44 4169.08 4186.94 4187.9 4180.39 4167.22 4159.56 4162.67 4165.69 4168.7 4168.18 4168.31 4169.75 4169.51 4168.43 4163.45 4162.16 4168.21 4162.48 4150.84 4148.38 4152.72 4170.87 4175.32 4172.89 4178.57 4184.83 4192.37 4188.88 4179.86 4179.58
4052.82 4052.71 4052.76 4053.12 4052.95 4052.52 4052.46 4052.69 4053.52 4054.33 4055.13 4054.77 4055.07 4056.66 4057.24 4057.31 4056.77 4057.02 4058.89 4060.66 4062.4 4065.32 4068.38 4071.79 4074.18 4076.08 4079.2 4082.54 4086.35 4088.06 4088.73 4089.75 4091.67 4095.44 4097.65 4099.12 4097.55 4096.59 4096.84 4099.09 4102.37 4103.12 4104.44 4106.9 4107.61 4107.45 4108.79 4110.02 4111.09 4109.88 4107.52 4105.27 4103.63 4103.2 4105.67 4109.62 4109.94 4110.43 4111.24 4113.09 4115.47 4117.84 4119.57 4120.04 4121.1 4122.45 4122.93 4123.53 4124.4 4126.9 4130.24 4132.53 4134 4133.88 4133.85 4133.87 4135.4 4136.38 4136.3 4136.4 4136.61 4136.82 4137.67 4139.79 4140.58 4140.69 4143.73 4145.94 4146.5 4146.13 4145.3 4145.96 4146.87 4148.27 4148.27 4147.58 4147.4 4147.38 4147.66 4147.48 4147.06 4148.29 4149.38 4150.2 4151.13 4152.12 4151.36 4150.51 4149.41 4147.13 4144.24 4143.63 4143.15 4142.89 4142.32 4141.59 4141.61 4141.55 4141.3 4140.61 4139.69 4137.51 4135.26 4132.81 4130.13 4127.31 4124.09 4120.49 4116.09 4113.37 4111.46 4108.24 4104.86 4101.1 4098.45 4096.34 4092.88 4089.42 4085.87 4082.83 4080.02 4074.74 4070.76 4069.3 4068.39 4067.73 4065.45 4064.24 4065.11 4065.41 4065.44 4065.12 4066.33 4070.53 4073.07 4074.79 4079.24 4083.49 4087.41 4092.42 4098.03 4102.46 4107.39 4113.42 4119.12 4124.74 4137.54 4149.52 4160.03 4148.42 4125.85 4104.75 4083.16 4059.9 4044.1 4031.82 4020.22 4008.45 3996.06 3987.38 3980.46 3972.37 3966.09 3963.26 3958.38 3952.47 3948.42 3942.31 3931.97 3928.28 3927.91 3927.01 3927.03 3929.02 3928.98 3928 3933.2 3939.12 3946.49 3954.02 3961.65 3980.81 3996.25 4004.12 4011.35 4018.35 4032.78 4053.3 4086.59 4101.99 4108.44 4103.08 4102.59 4111.94 4113.89 4112.17 4119.72 4122.68 4116.43 4116.81 4120.45 4132.93 4142.13 4144.74 4146.37 4147.54 4148.32 4151.27 4158.63 4163.65 4167.52 4170.78 4174.29 4178.33 4187.91 4200.43 4230.46 4249.34 4245.56 4238.15 4228.89 4227.11 4225.23 4223.14 4219.68 4215.48 4196.97 4179.84 4165.01 4154.94 4147.13 4154.23 4163.68 4178.02 4185 4188.34 4189.76 4193.93 4203.66 4217.69 4234.11 4245.83 4255.81 4262.41 4268.39 4274.12 4273.75 4273.41 4273.16 4273.06 4272.98 4264.78 4257.83 4253.24 4252.47 4253.6 4248.89 4245.68 4245.43 4249.37 4255.45 4252.82 4253.89 4262.6 4262.9 4258.93 4263.17 4276.78 4309.61 4340.31 4370.44 4381.62 4378.44 4346.81 4324.57 4306.77 4312.43 4314.62 4309.74 4299.36 4286.25 4276.47 4270.13 4270.43 4266.84 4261.27 4258.45 4256.62 4256.68 4256.26 4255.59 4250.76 4241.26 4222.17 4205.32 4189.47 4170.45 4157.09 4154.48 4150.99 4147.02 4142.89 4139.13 4136.03 4134.08 4132.69 4132.88 4133.24 4133.92 4134.47 4134.95 4130.58 4126.76 4123.96 4122.76 4122.33 4122.47 4122.2 4121.1 4121.67 4123.08 4125.32 4127.94 4131.36 4135.78 4140.75 4144.7 4146.71 4144.87 4143.46 4142.24 4148.14 4157.58 4174.3 4174.29 4165.88 4164 4168.72 4186.82 4187.84 4180.3 4166.97 4159.18 4162.16 4165.25 4168.44 4167.86 4167.93 4169.29 4169.05 4168 4163 4161.8 4168.19 4162.37 4150.45 4147.63 4151.62 4169.43 4174.47 4173.13 4178.57 4184.71 4192.34 4188.47 4178.83 4178.38
4053.39 4053.3 4053.38 4053.82 4053.65 4053.17 4053.16 4053.4 4054.19 4054.68 4055.02 4055.17 4055.62 4056.7 4057.15 4057.3 4057.23 4057.76 4059.51 4061.25 4062.99 4065.85 4068.85 4072.18 4074.63 4076.68 4079.75 4083.03 4086.82 4088.51 4089.16 4090.24 4092.15 4095.77 4098.01 4099.59 4097.85 4096.87 4097.35 4099.58 4102.71 4103.5 4104.71 4106.79 4107.56 4107.67 4109.06 4110.25 4111.06 4109.82 4107.54 4105.63 4104.2 4103.7 4106.2 4110.23 4110.6 4111.11 4111.94 4113.8 4116.19 4118.6 4120.52 4121.49 4122.23 4122.85 4123.38 4124 4124.83 4127.26 4130.51 4132.95 4134.51 4134.35 4134.31 4134.32 4135.24 4135.79 4135.59 4136.18 4137.18 4137.35 4138.07 4139.9 4140.58 4140.69 4142.74 4144.25 4144.69 4145.27 4145.95 4146.58 4147.46 4148.83 4149.04 4148.67 4148.01 4147.65 4147.9 4147.62 4147.08 4147.73 4148.41 4149.14 4150.46 4152.1 4150.14 4148.63 4147.92 4145.84 4143.07 4141.79 4141.08 4141.48 4141.18 4140.51 4140.56 4140.7 4141.02 4140.35 4139.17 4137.11 4135.05 4132.91 4130.58 4128.13 4125.15 4121.83 4117.74 4114.71 4112.17 4108.9 4105.84 4103.09 4101.12 4099.52 4095.87 4092.31 4088.84 4085.45 4082.06 4078.31 4075.1 4073 4071.82 4071.1 4068.29 4066.74 4067.65 4069.38 4071.59 4069.2 4068.49 4071.09 4073.27 4075.3 4079.44 4084.16 4090.04 4095.81 4101.57 4105.99 4110.25 4114.3 4121.33 4130.01 4146.4 4159.11 4164.72 4154.78 4137.23 4113.67 4090.02 4065.46 4048.29 4034.61 4022.86 4011.35 3999.99 3991.41 3984.1 3974.7 3968.03 3966.5 3962.76 3957.88 3952.64 3946.26 3937.41 3936.21 3938.85 3938.75 3941.86 3951.31 3956.05 3958.43 3961.54 3964.72 3968.12 3971.79 3975.63 3990.94 4002.92 4008.24 4015.39 4023.6 4040.84 4061.54 4089.81 4105.56 4115.23 4113.47 4114.49 4121.27 4124.44 4125.92 4130.24 4132.16 4129.1 4126.75 4124.61 4135.4 4143.09 4144.61 4146.6 4148.86 4150.82 4154.27 4160.82 4164.8 4167.52 4170.26 4173.52 4177.84 4187.97 4201.17 4231.61 4249.93 4243.69 4236.53 4228.89 4227.11 4224.64 4220.84 4215.84 4210.2 4194.89 4179.84 4165.01 4154.86 4146.94 4154.16 4163.68 4178.02 4185 4188.34 4187.68 4190.83 4201.63 4216.68 4234.11 4244.31 4253.88 4262.2 4268.44 4273.67 4276.56 4277.55 4274.92 4272.94 4271.26 4265.19 4259.89 4256.03 4255.18 4255.79 4251.49 4248.94 4249.78 4254.02 4260.01 4258.78 4265.54 4288.22 4286.06 4271.11 4275.51 4286.72 4312.19 4343.29 4378.05 4390.67 4391.42 4368.27 4345.41 4322.4 4323.12 4321.95 4316.84 4308.59 4298.77 4288.36 4280.67 4278.22 4274.29 4269.65 4265.42 4262.48 4262.02 4261.48 4260.89 4251.52 4238.8 4219.07 4202.32 4186.94 4168.4 4155.4 4152.96 4149.52 4145.54 4141.37 4137.8 4135.33 4133.59 4132.19 4132.19 4132.49 4133.38 4133.81 4134.02 4129.62 4125.9 4123.45 4122.32 4121.84 4121.47 4121.1 4120.7 4121.64 4123.24 4125.3 4127.86 4131.46 4135.92 4140.87 4144.48 4146.63 4145.85 4144.41 4142.61 4148.29 4157.65 4174.59 4174.4 4165.61 4163.54 4168.26 4186.73 4187.86 4180.3 4166.56 4158.63 4162.02 4165.25 4168.44 4167.86 4167.93 4169.29 4168.7 4167.13 4162.08 4161.05 4168 4162.37 4150.45 4147.63 4151.52 4169 4174.26 4173.42 4178.69 4184.71 4192.33 4187.63 4176.73 4176.93
4053.96 4053.88 4053.99 4054.51 4054.34 4053.82 4053.85 4054.11 4054.84 4055.01 4054.91 4055.55 4056.17 4056.74 4057.08 4057.3 4057.68 4058.48 4060.13 4061.83 4063.57 4066.37 4069.31 4072.57 4075.09 4077.28 4080.29 4083.53 4087.28 4088.95 4089.59 4090.73 4092.63 4096.1 4098.36 4100.05 4098.16 4097.14 4097.86 4100.07 4103.04 4103.87 4104.99 4106.68 4107.5 4107.89 4109.33 4110.47 4111.03 4109.76 4107.56 4105.99 4104.76 4104.2 4106.73 4110.84 4111.24 4111.79 4112.63 4114.5 4116.9 4119.35 4121.46 4122.93 4123.35 4123.25 4123.82 4124.46 4125.26 4127.61 4130.76 4133.36 4135.01 4134.82 4134.76 4134.77 4135.1 4135.21 4134.89 4135.97 4137.75 4137.88 4138.47 4139.99 4140.58 4140.69 4141.77 4142.59 4142.9 4144.44 4146.6 4147.2 4148.04 4149.39 4149.8 4149.75 4148.61 4147.92 4148.14 4147.77 4147.09 4147.18 4147.45 4148.08 4149.8 4152.08 4148.95 4146.76 4146.44 4144.57 4141.91 4139.96 4139.03 4140.09 4140.05 4139.45 4139.52 4139.86 4140.75 4140.09 4138.64 4136.71 4134.83 4133.01 4131.03 4128.94 4126.2 4123.14 4119.38 4116.04 4112.88 4109.56 4106.8 4105.07 4103.77 4102.67 4098.83 4095.17 4091.78 4088.04 4084.09 4081.83 4079.42 4076.65 4075.22 4074.44 4071.11 4069.22 4070.16 4073.35 4077.7 4073.27 4070.65 4071.62 4073.48 4075.8 4079.64 4084.8 4092.67 4099.18 4105.08 4109.5 4113.11 4115.15 4123.55 4135.25 4155.2 4168.71 4169.3 4161.13 4148.57 4122.56 4096.86 4070.98 4052.44 4037.37 4025.47 4014.21 4003.91 3995.4 3987.71 3977.03 3969.92 3969.74 3967.11 3963.25 3956.84 3950.16 3942.82 3944.11 3949.74 3950.44 3956.56 3973.73 3983.26 3989.02 3990.03 3990.45 3989.72 3989.51 3989.57 4001.05 4009.59 4012.3 4019.41 4028.81 4048.82 4069.79 4092.94 4109.12 4121.96 4123.8 4126.38 4130.51 4134.97 4139.63 4140.74 4141.55 4141.76 4136.6 4128.73 4137.85 4144.06 4144.47 4146.82 4150.16 4153.29 4157.25 4162.97 4165.93 4167.52 4169.75 4172.75 4177.36 4188.03 4201.9 4232.75 4250.54 4241.82 4234.93 4228.89 4227.11 4224.08 4218.54 4212.03 4204.99 4192.81 4179.84 4165.01 4154.79 4146.76 4154.08 4163.68 4178.02 4185 4188.34 4185.63 4187.75 4199.62 4215.69 4234.11 4242.83 4251.94 4262.01 4268.49 4273.23 4279.33 4281.7 4276.64 4272.81 4269.56 4265.59 4261.93 4258.81 4257.85 4257.96 4254.07 4252.15 4254.1 4258.64 4264.53 4264.69 4276.96 4314.07 4309.17 4283.25 4287.79 4296.72 4314.65 4346.28 4385.61 4399.66 4404.24 4389.85 4366.21 4337.98 4333.79 4329.24 4323.89 4317.78 4311.25 4300.21 4291.19 4285.92 4281.71 4277.97 4272.35 4268.3 4267.31 4266.65 4266.15 4252.29 4236.37 4216 4199.36 4184.45 4166.36 4153.72 4151.46 4148.06 4144.08 4139.86 4136.47 4134.64 4133.1 4131.69 4131.52 4131.76 4132.83 4133.16 4133.11 4128.67 4125.04 4122.94 4121.89 4121.36 4120.48 4120.01 4120.32 4121.6 4123.39 4125.27 4127.77 4131.56 4136.07 4140.99 4144.27 4146.54 4146.84 4145.36 4142.97 4148.44 4157.72 4174.88 4174.51 4165.35 4163.09 4167.8 4186.65 4187.88 4180.3 4166.15 4158.09 4161.88 4165.25 4168.44 4167.86 4167.93 4169.29 4168.35 4166.27 4161.18 4160.3 4167.81 4162.37 4150.45 4147.63 4151.41 4168.57 4174.06 4173.71 4178.81 4184.71 4192.33 4186.79 4174.67 4175.49
4054.21 4054.11 4054.18 4054.6 4054.45 4054.01 4054.03 4054.3 4055.06 4055.51 4055.81 4056.32 4056.84 4057.43 4057.76 4057.97 4058.35 4059.04 4060.36 4061.92 4063.62 4066.47 4069.41 4072.57 4075.08 4077.29 4080.26 4083.49 4087.29 4089 4089.68 4090.99 4092.95 4096.23 4098.3 4099.79 4098.15 4097.35 4098.25 4100.35 4103.09 4104.16 4105.44 4107.15 4107.83 4108 4109.49 4110.62 4111.03 4109.71 4107.51 4106.58 4105.7 4104.9 4107.37 4111.5 4111.88 4112.42 4113.3 4115.16 4117.54 4120.17 4122.15 4122.86 4123.07 4123.03 4123.89 4124.73 4125.55 4128.07 4131.48 4133.48 4134.7 4134.41 4134.76 4135.43 4135.76 4135.86 4135.53 4135.98 4136.84 4137.05 4137.6 4138.84 4140.07 4141.31 4142.36 4143.15 4143.41 4144.14 4145.11 4145.41 4145.81 4146.41 4146.52 4146.38 4144.09 4142.56 4142.55 4142.04 4141.28 4141.86 4142.43 4142.99 4145.32 4148.54 4146.75 4145.44 4145.04 4142.72 4139.43 4137.71 4137.02 4138.36 4138.49 4138.02 4138.06 4138.36 4139.17 4138.47 4137.01 4135.12 4133.55 4132.59 4130.93 4128.9 4126.29 4123.38 4119.83 4116.6 4113.51 4110.15 4107.38 4105.75 4104.2 4102.67 4098.83 4095.3 4092.32 4088.65 4084.6 4082.43 4080.22 4077.94 4076.63 4075.82 4073.24 4071.95 4073.18 4075.34 4078.03 4075.34 4073.89 4074.87 4076.5 4078.48 4082.52 4087.18 4093.13 4099.86 4107.02 4110.28 4113.69 4117.51 4126.24 4137.58 4157.11 4170.31 4170.8 4162.43 4149.61 4122.97 4096.86 4070.98 4053.56 4040.15 4027.61 4016.83 4009.33 4001.66 3993.87 3984.61 3977.56 3974.62 3971.38 3967.91 3960.48 3954.67 3952.11 3953.33 3956.54 3957.91 3962.94 3975.29 3983.26 3989.02 3990.03 3991.4 3993.62 3996.1 3998.73 4009.03 4017.38 4021.98 4029.33 4038.19 4059.31 4079.98 4099.79 4113.1 4123.28 4129.41 4134.09 4135.75 4139.22 4143.62 4144.96 4145.8 4145.65 4141.25 4134.69 4141.39 4145.82 4145.82 4147.85 4150.92 4152.71 4156.2 4163.25 4166.1 4166.9 4170.11 4173.61 4177.71 4186.14 4196.91 4217.94 4231.27 4229.59 4226.34 4222.34 4219.81 4217.09 4214.03 4206.9 4197.75 4188.52 4177.14 4161.15 4151.43 4144.71 4151.56 4160.12 4172.23 4179.77 4185.02 4181.5 4182.37 4192.01 4207.08 4225.09 4238.29 4249.93 4258.41 4263.8 4267.69 4274.05 4277.61 4275.64 4272.58 4268.97 4263.48 4258.61 4254.91 4254.6 4255.95 4255.02 4254.51 4254.67 4259.87 4267.6 4274.48 4291.22 4328.21 4341.17 4341.63 4352.02 4359.56 4360.86 4374.43 4394.48 4402.33 4405.15 4398.31 4388.37 4376.68 4360.49 4347 4338.74 4333.46 4329.54 4319.63 4309.36 4297.9 4289.49 4282.48 4276.59 4271.28 4266.96 4263.65 4260.81 4243.52 4227.2 4212.55 4197.93 4183.29 4165.68 4153.32 4150.96 4147.5 4143.47 4138.85 4135.19 4133.37 4131.88 4130.53 4130.79 4131.32 4132.39 4132.7 4132.64 4128.23 4124.62 4122.51 4121.48 4120.96 4120.04 4119.51 4119.71 4121.07 4123.01 4125.04 4127.67 4131.55 4135.48 4139.5 4142.86 4145.48 4146.68 4145.44 4142.97 4149.25 4158.46 4173.68 4173.16 4164.72 4162.99 4168.01 4186.7 4187.84 4180.18 4166.21 4158.18 4161.71 4164.78 4167.65 4167.26 4167.37 4168.46 4167.81 4166.27 4161.18 4160.12 4167.09 4161.62 4149.91 4146.24 4149.73 4167.75 4173.64 4173.46 4178.28 4184 4191.63 4186.38 4174.67 4174.87
4054.46 4054.34 4054.36 4054.69 4054.56 4054.2 4054.22 4054.49 4055.27 4056 4056.71 4057.09 4057.53 4058.12 4058.45 4058.65 4059.02 4059.6 4060.6 4062.02 4063.66 4066.56 4069.5 4072.57 4075.06 4077.3 4080.23 4083.45 4087.3 4089.05 4089.77 4091.25 4093.26 4096.36 4098.24 4099.53 4098.14 4097.57 4098.64 4100.64 4103.14 4104.45 4105.89 4107.61 4108.15 4108.12 4109.65 4110.76 4111.03 4109.66 4107.46 4107.18 4106.65 4105.61 4108.01 4112.16 4112.52 4113.06 4113.98 4115.84 4118.19 4121 4122.84 4122.8 4122.79 4122.79 4123.96 4125.01 4125.85 4128.54 4132.19 4133.59 4134.39 4134 4134.76 4136.1 4136.43 4136.52 4136.17 4136 4135.92 4136.22 4136.73 4137.67 4139.56 4141.93 4142.96 4143.71 4143.93 4143.84 4143.61 4143.61 4143.55 4143.41 4143.21 4142.99 4139.54 4137.16 4136.92 4136.27 4135.42 4136.5 4137.38 4137.87 4140.8 4144.98 4144.54 4144.1 4143.63 4140.86 4136.93 4135.44 4135 4136.61 4136.92 4136.59 4136.59 4136.84 4137.58 4136.84 4135.37 4133.52 4132.27 4132.16 4130.82 4128.86 4126.37 4123.63 4120.29 4117.17 4114.14 4110.74 4107.97 4106.44 4104.63 4102.67 4098.83 4095.44 4092.85 4089.26 4085.12 4083.03 4081.04 4079.23 4078.07 4077.21 4075.39 4074.7 4076.23 4077.38 4078.36 4077.44 4077.17 4078.15 4079.56 4081.2 4085.43 4089.57 4093.63 4100.54 4108.97 4111.06 4114.29 4119.87 4128.97 4139.94 4159.04 4171.92 4172.31 4163.73 4150.66 4123.38 4096.86 4070.98 4054.68 4042.95 4029.76 4019.51 4014.79 4007.99 4000.1 3992.3 3985.27 3979.6 3975.69 3972.63 3964.15 3959.29 3961.48 3962.69 3963.42 3965.48 3969.34 3976.94 3983.26 3989.02 3990.03 3992.4 3997.54 4002.76 4008.02 4017.12 4025.3 4031.77 4039.4 4047.71 4069.97 4090.28 4106.77 4117.15 4124.61 4135.12 4141.87 4141.08 4143.53 4147.66 4149.23 4150.1 4149.59 4145.96 4140.72 4144.95 4147.6 4147.18 4148.89 4151.68 4152.12 4155.16 4163.52 4166.29 4166.27 4170.49 4174.48 4178.06 4184.25 4191.88 4203.02 4212.08 4217.23 4217.69 4215.74 4212.46 4210.09 4209.46 4201.75 4190.47 4184.21 4174.39 4157.27 4148.05 4142.65 4149.01 4156.5 4166.43 4174.48 4181.67 4177.34 4176.92 4184.38 4198.42 4216.02 4233.74 4247.88 4254.79 4259.08 4262.11 4268.74 4273.52 4274.6 4272.34 4268.38 4261.34 4255.26 4250.99 4251.31 4253.93 4256 4256.87 4255.28 4261.1 4270.71 4284.44 4305.72 4342.6 4373.8 4402.22 4418.89 4424.68 4408.76 4403.35 4403.47 4404.99 4406.18 4406.78 4410.86 4416.46 4387.71 4365.04 4353.89 4349.4 4348.16 4339.43 4327.78 4310.13 4297.39 4287.04 4280.88 4274.25 4266.64 4260.63 4255.43 4234.68 4218.04 4209 4196.48 4182.12 4165 4152.92 4150.47 4146.94 4142.85 4137.83 4133.91 4132.1 4130.65 4129.37 4130.07 4130.88 4131.94 4132.24 4132.17 4127.79 4124.19 4122.08 4121.05 4120.55 4119.6 4119 4119.1 4120.53 4122.63 4124.8 4127.56 4131.54 4134.9 4138.01 4141.44 4144.42 4146.52 4145.52 4142.97 4150.08 4159.19 4172.5 4171.8 4164.08 4162.9 4168.22 4186.75 4187.79 4180.06 4166.28 4158.28 4161.55 4164.3 4166.84 4166.65 4166.8 4167.63 4167.26 4166.27 4161.18 4159.94 4166.36 4160.85 4149.36 4144.83 4148.05 4166.91 4173.21 4173.22 4177.75 4183.29 4190.93 4185.96 4174.67 4174.24
4054.58 4054.18 4054.11 4054.69 4054.63 4054.25 4054.26 4054.52 4055.3 4056.17 4057.09 4057.45 4057.89 4058.49 4058.8 4058.97 4059.05 4059.46 4060.5 4061.91 4063.52 4066.42 4069.27 4072.07 4074.47 4076.69 4079.63 4082.92 4086.97 4088.8 4089.54 4091.33 4093.44 4096.23 4098.03 4099.36 4097.96 4097.45 4098.7 4100.63 4102.91 4104.46 4106.05 4107.76 4108.17 4107.93 4109.5 4110.62 4110.85 4109.51 4107.38 4107.42 4107.05 4105.86 4108.28 4112.53 4112.92 4113.48 4114.41 4116.28 4118.65 4121.56 4123.36 4122.97 4122.86 4122.89 4124.07 4125.13 4125.95 4128.58 4132.15 4133.49 4134.26 4133.92 4134.59 4135.77 4136.17 4136.46 4136.54 4136.19 4135.63 4135.99 4136.47 4137.24 4138.93 4141.09 4141.93 4142.7 4143.33 4142.96 4142.08 4141.88 4141.6 4141.17 4140.81 4140.49 4137.03 4134.61 4134.25 4133.51 4132.57 4133.91 4134.93 4135.33 4138.08 4142.04 4142.25 4142.07 4141.07 4138.1 4134.1 4132.83 4132.75 4135.07 4135.67 4135.41 4135.38 4135.63 4136.43 4135.72 4134.27 4132.43 4131.27 4131.45 4130.3 4128.49 4126.28 4123.75 4120.51 4117.46 4114.46 4111.04 4108.32 4106.91 4105.04 4102.93 4099.18 4095.83 4093.19 4089.7 4085.75 4083.62 4081.72 4080.24 4079.23 4078.44 4077.2 4076.9 4078.45 4078.99 4079.02 4079.06 4079.42 4080.41 4081.69 4083.11 4087.44 4091.39 4094.66 4101.39 4109.94 4112.1 4115.67 4122.18 4131.19 4141.58 4160.98 4173.77 4173.32 4164.55 4151.62 4126.6 4100.94 4073.34 4057.1 4046.28 4034.06 4025.16 4022.69 4016.49 4008.4 4001.73 3994.9 3987.6 3982.89 3979.41 3970.5 3965.64 3968.67 3968.77 3967.35 3970.28 3973.79 3978.53 3983.94 3989.73 3990.94 3993.85 4000.23 4007.62 4015.63 4023.3 4030.78 4037.92 4045.48 4053.32 4075.71 4095.52 4110.17 4119.11 4125.27 4137.42 4145.36 4144.94 4147.24 4150.94 4152.85 4153.87 4153.11 4149.68 4144.88 4147.16 4148.4 4147.51 4149.14 4152.06 4152.3 4155.23 4163.63 4166.58 4166.84 4171.4 4175.2 4177.53 4181.92 4187.36 4194.17 4200.61 4206.4 4206.31 4203.2 4200.19 4198.09 4197.79 4189.67 4177.62 4174.47 4167.45 4152.76 4145.06 4140.81 4145.43 4150.94 4158.21 4165.21 4172.09 4168.89 4168.33 4173.11 4186.45 4204.31 4228.15 4246.2 4252.83 4256.75 4259.35 4265.59 4270.46 4272.58 4270.28 4265.73 4257.8 4251.4 4247.9 4248.17 4250.3 4256.26 4259.68 4258.21 4265.13 4276.39 4293.93 4317.91 4355.46 4393.67 4432.86 4450.82 4455.79 4434.74 4420.87 4410.45 4406.78 4406.79 4414.12 4425.53 4439.18 4413.73 4391.41 4374.96 4366.63 4362.08 4350.19 4335.73 4315.7 4300.48 4287.51 4281.73 4274.78 4265.41 4257.53 4250.3 4227.93 4211.4 4205.83 4195.06 4181.68 4164.63 4152.58 4150.06 4146.44 4142.25 4137.02 4132.96 4131.15 4129.72 4128.46 4129.38 4130.34 4131.41 4131.76 4131.75 4127.37 4123.77 4121.64 4120.61 4120.12 4119.06 4118.37 4118.42 4119.68 4121.56 4124.73 4128.2 4132.41 4135.34 4137.65 4140.5 4143.37 4146.31 4145.85 4143.69 4150.78 4159.41 4171.3 4170.48 4163.29 4162.35 4167.88 4186.57 4187.75 4180.16 4166.28 4158.2 4161.43 4164.07 4166.44 4165.91 4165.73 4166.2 4166.17 4165.88 4160.7 4159.3 4165.44 4159.97 4148.71 4144.08 4147.17 4165.85 4172.36 4172.78 4177.3 4182.78 4190.3 4185.31 4174.07 4173.15
